VERSION .7
FIELDS x y z
SIZE 4 4 4
TYPE F F F
COUNT 1 1 1
WIDTH 967
HEIGHT 1
VIEWPOINT 0 0 0 1 0 0 0
POINTS 967
DATA ascii
-30.2342680278717 13.224561876251897 68.4721986269383
1.84777170202648 32.948228172956284 98.12863108819685
32.974413406344944 1.2992538271865894 112.88955347888665
32.52487764462618 5.579635669297457 22.311569683767768
-5.640132086182826 32.514441561411 43.59763216565617
32.80997806667164 3.5362889113484246 18.779685778025033
-29.841663889687965 14.088118976460033 100.75826548436135
-32.96640355176265 -1.4887030806479569 65.68563497650302
17.888312501113546 -27.73099846494 20.945401469340663
18.796888944930313 -27.12336568333577 102.66979342173192
32.93654140064322 2.0455416308926684 51.88193928388275
-11.39872132103127 -30.96884163551274 99.94644151088407
-8.021181737020155 -32.010320890951625 36.94447351996685
0.9947841439892933 -32.985002721037745 95.24117322054337
-32.86888613014369 2.938762420415695 43.23149752773157
20.18437233260713 26.107300004762727 34.468912150153564
-3.4314304156444204 32.82111036059857 104.31452529597325
5.505420435143026 -32.53752212188736 80.36246982918188
31.441725925897174 -10.020871758523086 32.6074627525408
12.510106328384174 -30.536817772199548 83.45903342467842
32.99613408392461 0.5051094096021075 56.7089122933466
-9.72890421712472 -31.533290705760677 94.81062617183511
-29.427508774844835 -14.933911989376066 56.79673746621011
30.188518764244137 13.328665905516562 82.03139984152746
-21.363221282695104 -25.151794695937763 48.248269071149586
-15.856773283207575 -28.940676236828928 68.8456325247778
-31.337969035486434 10.340778342605226 8.3354607280086
-16.690307560713457 28.468116086752058 21.112770437114815
11.807154690548328 30.815436036400044 29.472455991858254
28.60682558050552 16.451429427455075 16.786563459630084
-29.782165330797486 14.213466438875642 46.0851695977444
-29.942039871334586 -13.87350886918698 45.674746356370214
29.679899760315788 -14.425794613039757 27.8912349254963
21.307869060479238 25.19870465126078 30.742424136593524
-6.924627251172423 -32.26529927696813 28.584147473970244
32.9827846739686 1.065793202559296 39.37161566595154
-22.594584463022258 24.0517099796117 13.798831712105889
32.84283259843449 -3.2168846592952316 5.837090131901379
21.61782786941157 24.93330139007854 32.769779980963705
-20.123607180935963 26.154166666659112 39.65166930026491
-20.536607572651423 25.831139142649445 76.84668718465426
20.937122364926196 25.507585285089363 23.27487302131152
28.80100440001666 16.109070288201647 110.2450261076086
32.574757086952445 5.280643968877425 31.37238254258402
30.15189301284868 -13.411314169078544 98.27707804683976
24.454479701657117 22.158032911818687 6.851375683186897
13.780676809400262 -29.984878633652293 20.30755942178167
-28.602699599130368 16.458601873850263 8.11447250995238
-28.3582198863215 16.876355201258352 0.823942624793131
-30.408100245514312 12.819806529692727 32.50130386529351
31.946312036432186 -8.272432971678162 92.49227255806196
25.699869573167256 -20.700645012225873 99.28930266824167
30.549300487121837 -12.479592931964469 21.72162828955465
10.842676999039618 -31.167873772435893 25.804606564600867
-0.5995274451768421 32.994553593623294 33.439426333298414
-32.12884333312259 -7.53242497975679 28.769926161869552
29.711267049721034 -14.361079705236694 6.361484728254108
32.187311852621214 -7.278527028328593 97.0501148555409
2.1297641123245126 -32.93120260218042 32.903956352992545
-12.698862980560717 -30.458806263557747 86.30687412013368
5.473057274314546 -32.54298148713594 3.619449045393667
-27.120306769750645 -18.801302101573107 70.35596371773347
-3.72885233404694 32.7886513945126 3.1830340235022963
-8.184253751150086 -31.969016102107144 44.78534916690405
30.59552831762669 -12.365825769648517 35.66863701643732
12.535912129615806 -30.526233096773524 67.5276892829242
24.10347779357693 22.539351327279665 29.98653388872931
-32.57257257033351 5.294102015484474 37.65723885063754
31.6668381452373 9.285007371205683 110.94553984962276
-20.53214245219646 -25.834688430920004 84.35762144244083
-25.57432503307644 -20.855548400906645 101.11340142665695
-24.39244165951006 22.226308507878635 82.51953920675498
-32.585116724174085 5.216336652474636 63.58279116538163
-32.999920231312764 0.07255843848022771 89.824559866345
-32.30187814129594 -6.75193813248222 3.0276163568795234
-6.184794356139186 32.415248244804 52.674900306116115
-12.742389722391692 -30.440622598144845 1.9616816792534626
14.155442541912896 29.809787762454842 11.740668372818655
18.26372245205415 -27.48520405953598 36.48105881471146
10.147965185266877 31.40093633315114 95.15727276465124
15.680540858039665 29.036539711187157 29.9650589293898
-30.213101706362323 13.272847670376015 80.63322653166904
31.556516908694306 9.653302056358248 100.50507097885598
26.35046691411139 19.865872581095473 4.822895214768832
3.9387597325463775 -32.76409882431182 18.845504222496967
-7.898973921801384 32.040696168821015 30.29772142337807
-31.057405074476282 11.155159794458122 29.876014996444155
-20.024618149355636 26.23003370132217 96.85915178122436
-21.586372871534103 -24.96053898158244 36.80670332740906
10.477981893151137 31.29236161504588 55.52401791357193
32.8462264218378 -3.1820449156736865 73.78855764255346
-6.969186594178622 32.255703964035895 56.060546019396
-26.431978080190685 19.75729067378215 73.37118172601548
18.990731231088276 26.98799969076197 25.965203198223406
30.485704892282904 12.634152018265343 0.7241693297436136
11.693611912538566 30.85870121114847 111.05326445095903
32.90589742226794 2.490364398071089 0.85080429859025
12.138791598646145 30.686311908156018 5.84423094915307
-28.066164643394405 -17.35771880777765 72.53975948658264
30.12498061683712 -13.471657018911518 95.8654524882684
5.999114832605307 -32.45012513419964 5.592040634578798
-15.111389326377228 -29.33676724907931 92.70354703913824
-4.527789410077464 32.68790484350428 75.99010799648381
7.624302154803434 32.10716456886624 26.624178008640527
-18.101523115709444 -27.59229712965988 3.023100095786308
-19.557316046610758 26.58028195962152 22.86526759326181
32.96019730925569 1.6203065558510859 113.55859302922207
2.4585708032816354 -32.908288159751656 46.99984603152744
23.391685772966692 -23.2772214127629 102.97902049263418
-15.316420884136411 -29.230245488192363 56.01326157368231
26.984069662745974 -18.996315022552995 76.97511859256157
-27.365369476007647 18.44279136794615 94.35450290359104
4.9721442123019095 32.623270558484364 1.147393092557259
0.7565334161348322 -32.99132699953537 63.11848836934461
31.985384984605055 8.120046021212046 20.932338389427933
31.856911864846268 8.61029421305783 84.15724517763334
-3.9829596462431995 32.75875505046549 107.8947248576571
-30.33141616310051 13.000199750034813 61.77118589203512
32.6241144465863 -4.966604129185186 55.31043549566551
-29.748593232805796 14.283599009670546 54.308604884374994
-32.99020781530435 0.8038583849358464 48.04036714642893
24.1603458954393 22.47838264227943 61.87334280444275
31.947252929891825 8.268798596744164 67.73209943058662
-32.659724920619084 4.726771425560226 42.43178108340455
-15.100714940515179 29.34226317592598 58.258631759273165
32.015157973382514 8.001853531486425 74.39128782249716
29.789735874897385 -14.197592630578315 52.005322155187855
-5.838036695215532 -32.479490875709814 23.591218382557578
29.716654005595256 14.349929432291276 54.29518026900085
25.259534727115877 21.23572238869276 33.20726172281361
-12.12820389939445 30.690498043771026 111.54015617881255
-1.3274312704047682 32.97329110389728 99.87453718984149
27.368459299982305 -18.43820586568043 85.61765499489877
-28.282247914189966 -17.00336592914171 58.061218597880895
-15.990534967077217 28.8669844539862 98.2923667409067
-30.86350892655718 -11.6809167765345 13.54587924389876
28.880763462377285 -15.965635027464872 64.2273951868751
30.50984996836522 -12.575732778166238 18.192589517790942
24.406013249179704 -22.211405117210948 34.97620288227122
19.24016793782267 26.810742953606873 0.35061541460326984
-25.47230755711924 -20.98002735259242 78.31168838458672
-16.411802486019628 -28.629578047185397 56.2903657211794
-8.79630513883845 -31.80605313308214 30.691912185697735
-8.933744236781214 -31.767722831701025 101.05085189638123
-15.03147009006161 29.37779615511659 108.76927704962195
-22.01179399876831 24.58619378748543 62.406254555927276
-26.95870271738591 19.032297491254422 26.893049375941274
-32.163368561898935 -7.383611768738326 87.12973282181028
-26.691650915711904 19.405044998499122 21.910960349307345
1.0870103585935924 -32.982092239279034 58.11798911496316
1.0611413623050552 -32.98293466338624 41.340238171201214
8.634814933678346 31.850274269794372 55.52395974016109
3.0165802755019695 32.86183566755595 113.13639154700802
17.47523022414748 27.99314788681406 87.4785301302545
27.717748866723937 -17.908835745553755 84.61024089278824
12.431319115885445 30.568976185653014 8.840844286433377
-32.966429883134815 1.4881198743231678 59.96843458759574
25.366516416100094 21.10781478295952 21.059168955979562
-24.76866894180918 21.80626145975181 81.5565289994574
-6.744206950408496 -32.30349319516485 52.98167001493442
-31.263582239710527 10.563542281870053 99.99284296398794
8.268717668750611 -31.947273876099214 49.83822494031258
23.387786155834704 -23.28113954962142 29.04178538900575
8.932655977476221 31.768028852732716 70.13276939362191
-32.02138661960172 -7.976891559874179 43.61890710084981
-12.353418729616166 30.600539957503504 62.95011043339935
32.05494258430215 -7.840960140001527 13.459629437872543
-24.28002626134847 22.349056462146866 29.424587276697864
-2.1893702065253358 32.9272935131143 49.73945695474799
-4.6475393246573145 32.67109392453463 88.64959162280982
23.32106813455518 23.347971669150084 107.53022390123773
-32.96889038655915 1.4325734463012876 1.3216826267837947
32.54792140993896 -5.443602841173979 64.10342481318601
-32.71595807482716 4.320426743523338 23.876549786626654
-9.798725231379112 31.51166425055862 2.1603737907888663
-6.360555677849627 -32.38121880765107 43.91048230651435
26.761275130658618 -19.30891383224838 56.564412466385534
26.17245069381378 -20.099821508657396 31.558038446713
-12.670157731738637 -30.470758163407478 24.01735370263727
30.65342273089665 12.22160688620562 37.23678138529659
28.32614789777176 16.93013128341184 57.368274716514975
-23.535151055557503 -23.132156509761266 88.23506403379588
-24.71141235666837 21.871124784489204 11.536903207237561
-26.615138372558363 19.50985416166844 51.45212767047453
32.319451401317075 6.667312885856169 98.41439379153623
18.91695064346128 -27.039766610546952 0.032996745382046555
30.994654335747086 -11.328345095712544 83.8382091547278
32.06382020511311 -7.80457774989655 102.29672085651508
-32.47169245185609 -5.881257460107669 10.527789613448524
-32.60401393462201 -5.096888791309251 44.5721759149817
27.52356035557805 18.20586788243978 95.987016566196
11.750638582261523 -30.837031194799977 5.906920420063731
19.60364139690694 26.546134256826857 70.21411247614658
0.49146035939882116 -32.99634020183359 108.13475775083094
-9.114480343302914 31.716340395315864 20.306656836302533
-5.727638683280033 32.49914083654819 49.391855338186666
-32.876295654568736 2.854677570827379 71.418003913086
14.71117042664459 29.5394899190595 41.77660175521592
-16.64237996251803 -28.496160955173913 24.177339576512836
32.38936538878881 6.318940552935235 14.629274666592664
-8.127066442336089 -31.983601908507033 80.29656935943918
13.437974367799583 -30.14002065179056 48.0744867694365
-3.094145545976634 32.854623165398095 13.867623908880473
-11.382573784467864 -30.97478029044185 16.054493480706924
28.699249159130943 -16.289662295521104 43.19436167360443
9.55239851088359 -31.587207579798328 105.71004499730311
-31.89587283472314 8.4648269983013 83.90578395105916
-32.94377676309016 -1.9255057994408629 54.405188876979544
32.79905128214862 3.6362391273107164 45.684386792436236
-31.314303117519938 -10.41222455885779 113.94300207943103
-29.71019051911028 -14.363306698604244 66.6395578541227
-32.99390238869072 0.6343541326015294 4.171055451684798
31.621570827158052 -9.438021954998137 9.930449134850335
-9.952354698392462 31.46348098919421 22.120805274810117
0.5942505406034835 -32.99464905549069 58.39576832836124
-18.427526832107056 -27.375650765816957 107.26334367220834
-32.992893175354766 -0.6848356880512914 35.6729878929406
-32.99581895812273 -0.5252916169028908 109.76239054693025
-16.82925639275725 -28.386196104213035 73.83558337826052
-29.330335211455917 -15.12386975557609 45.90325854181566
-31.92339442461935 8.360435898335824 72.83850981302717
-27.887886074615743 17.642726838254152 60.33834918929924
31.941412288284276 -8.291331680124875 25.310329436207216
-4.874149399545445 -32.63805551240623 53.01375991812085
23.34950341395944 23.31953452197313 109.71523982944159
12.963121635945335 30.347281220097557 14.422233257432817
-25.27941743670345 21.212049737375533 37.572569264219304
9.537768128778662 -31.591628307538283 5.9718931445346115
-24.796530669334775 -21.77457385954407 48.26450606034322
21.846271856923615 24.733386463510964 62.739643423588966
-30.2878570292105 -13.101363157248343 65.41339845896916
-32.87159263287118 2.9083324738704825 61.768683965505666
-0.6371594156130768 32.993848333880294 59.55211353977271
25.956293955182424 20.37819432904104 17.3117248414257
6.090455160529686 32.43310586326227 101.67403869245338
8.81274538110471 31.801501833212495 65.30212876577325
-32.98072185037603 1.127823668899265 76.55341207298831
31.249315820159374 10.605671160843007 86.25586760190639
-22.50186952850221 24.138472771123357 47.299007936275025
18.925956009668838 27.033464245636 68.05400600825597
-23.463705324784353 23.204623083163547 68.75472293904517
-28.778290173787347 16.149613452751574 42.485570509750744
-27.123099022620313 18.797273722780467 78.18039378390066
-3.0231310384775396 -32.861233676236104 25.575264906607902
-25.850594804529607 20.51211223282544 85.52986022581594
-29.68084492103062 -14.423849859650195 33.84421827487946
-24.44674725313667 -22.166563755829515 68.65608846744914
25.170847307022857 21.34076957015703 81.57188278170004
4.151727805588623 -32.73779400369399 47.504074527856766
31.813537874842368 8.769196535941601 49.24130214589077
29.309614584837824 15.16398670825921 21.17204260353216
27.13704805977978 -18.77713030793583 23.34086072958828
18.221124081212245 -27.51346283580217 3.419806742514483
28.458543557532952 16.706624392258288 112.51577479122666
31.475368584712978 -9.914694773741816 13.401787166820839
-10.946964740984907 -31.13139834571575 59.48249269964292
25.100572028398496 21.42338170894546 31.97923860989006
-30.314591781675418 13.039383616965072 29.648654834550573
26.23615813291888 -20.016593277190662 7.958156443834969
29.12516262528593 15.515311857988793 33.26507926439822
-14.37543073105806 -29.704326137728685 36.534601399771255
21.08807021773965 -25.38293313412936 90.29833003771229
32.28366427322015 -6.838495528550777 34.282483666300756
13.425806089566874 30.145442953211834 111.00452327959762
-26.91552270807893 -19.093313943652824 68.86056442854127
-25.333108136418243 21.147899000811872 58.98699012543384
-31.056206471155754 11.158496297483074 57.66210464112995
-25.958105035712347 20.375887292457357 112.91230240326774
21.73078312978205 24.834916238360456 48.347809173924304
24.89289840910508 21.664339565146538 1.9573075909099336
-18.818169015133734 -27.108605919852476 11.850050532386074
-32.94650174078538 1.8783032354830436 12.270890980487463
-18.544554674347122 27.296510618211816 1.7799392629166164
-18.92537576752236 -27.033870460185263 84.44301141430527
-31.198092193146802 10.755419262302727 20.10391745917293
-20.911258512891493 25.52879290932149 28.724613450370047
-24.51079352942695 -22.095723580770148 62.98764076665711
-24.384725376670175 22.23477385323218 89.24720836592117
-31.251427078544936 -10.599448360852964 35.84051951083065
-30.853564874093276 -11.707157407334947 112.63243961055237
32.888035125296526 2.716090130548321 49.89105134829736
-29.332193881836695 15.120264616677245 110.83025802119221
-32.962909668430065 -1.5641567028018786 55.18157780215459
29.19962916957633 -15.374708334118967 81.25612180282012
-26.05890644074656 -20.24681197404711 55.31925581374027
32.66433657644271 -4.694796696436095 108.66790079240087
-32.796219151245964 3.6616948785293 37.71728160810666
16.758829273552184 -28.427832161104554 97.71308196521316
10.214862078931528 31.379238242959413 59.663566272974634
-32.68851794115563 -4.52336100822677 52.37355371303118
-0.7536086256816672 32.99139393901534 89.62546263091441
-10.838889016833468 31.169191277297635 84.82851558388685
-2.9600571627920798 -32.86697524252883 59.00135604484941
-32.99987843830358 0.08957151995047191 0.4768063988762776
17.838904978785703 -27.762807299656398 37.33576195911771
32.40869097600444 -6.219063371750453 45.03709047981369
-6.544959103122972 32.344450997635555 98.77979242860705
-23.058253696634 -23.60756100196851 32.022533979654895
-16.843685635703423 -28.377636515495755 82.71142283430366
-27.06657600127707 18.878571544666514 46.11704159760441
9.280025618650223 31.668298415247946 99.40713378149326
-5.474759810753005 32.542695109879325 8.535934909979888
-32.99554456891772 0.5422532623820673 110.07416736189988
-19.014402694507396 -26.971327185941554 40.983320094992294
-5.816184357499628 32.4834111435295 50.479080777777384
30.84866934277958 -11.720051185035466 78.40683786892315
-30.907099986116915 11.56508410899686 91.40496865610497
8.678900274055833 31.83828968448201 45.05246859950254
-27.771298941382856 -17.825682458417898 27.358022591199802
-6.192679543983717 32.41374276546178 44.241646642896725
-30.36251831817659 -12.92739267518361 23.303354014400423
4.039592111167448 -32.751819729221054 74.69346299447605
32.67182047519404 -4.642428980252841 77.4530049381037
-16.141920898615922 28.782605679521556 10.870507408814941
-32.83916046267914 3.254157357352487 72.08101142921215
24.59839352386277 21.998159833158454 3.045576787979021
-19.243521299069798 26.808336166428663 63.66144061061204
0.6246675120589993 32.99408720512477 68.79375129983283
29.31965515403644 15.144564095687418 96.78454841550109
10.851816942464573 31.164692667299622 27.69189052332678
25.931664274895653 -20.409526891481356 91.33815145238933
-27.588361187947793 -18.107521281592796 44.19756142155233
-32.80241705302076 3.6057503351858196 84.10679712101513
32.999887182223276 -0.0862899793476346 46.73438239644405
-32.37759121814258 -6.378995760372993 60.93481202424209
-32.7004844733235 -4.4360247079935125 96.34368902990377
11.632176145257077 -30.88191182756845 102.6576165543663
32.369388956182306 -6.420487411667673 5.959070009844785
32.678135585395104 -4.597766268802097 13.941260104818832
-1.7758148326582988 32.952184778556195 1.309287600017038
-3.639100634293434 -32.798733917233534 63.5708389807243
-18.7141940701304 -27.180488227872143 59.45716191876456
-0.7077091982281383 -32.99241045590248 97.34049143482292
-25.77231192550051 20.61038422773103 19.972713344118937
12.344926406795116 -30.60396693258592 22.73864652610534
18.386050549760576 -27.403524320452814 7.880932429601199
32.048757559302935 7.8662023178293 99.87964398068809
-32.07151814899132 7.772883867582218 102.82662876261128
-28.971741595327977 15.799942687666391 50.351518387702214
17.384004759644505 -28.04989088243762 102.25428571824104
28.925864128599052 -15.883777397515574 34.671215326103535
1.7998344800846207 -32.95088156399307 81.6350766696879
-32.97327977766185 1.3277125833687904 106.50926352474376
23.22227427808458 23.446235888803372 47.076230020719734
13.646925362762014 -30.045988553269517 41.280314127418464
-12.04062622507359 -30.724962491564902 112.91216295081935
5.97619051381316 32.45435482246735 84.5088313062089
12.180358336327082 -30.669836497749174 109.8916471789606
28.29304008965173 -16.985402040733685 26.706544416608317
9.75619399355974 31.524858108483677 48.29618417589672
32.31436095838112 6.691941112371943 4.678186079446849
22.567064799575515 -24.077532812390885 76.971076237375
1.2183404185170206 -32.97750212833907 86.95055695752973
-31.584375381715198 -9.561758820787261 3.8723530255591436
-22.701118157827946 -23.951184404624634 106.13400255502455
-31.49979213024335 -9.8368234583863 96.5173619715527
15.206690438925913 29.287481385306577 88.64883935843984
26.257630457042406 -19.988417715802292 44.396436369207066
7.732780059983377 32.081211207557665 36.409293794296914
-10.40449748091562 31.316871366239962 85.79031015184827
-28.269831149735868 -17.02400207840165 46.991913255484924
-9.419836273970377 -31.62699297390746 25.22098584118635
-32.740641372536196 4.129213304610373 0.28796052816539475
-24.440558508108694 -22.173387197532897 30.973288013074907
27.045417043917638 -18.908871381459267 84.06932721779049
31.603592274945665 9.49805007983189 22.58804613493473
-22.324603455090163 24.30251181612667 63.0669593797986
31.285111040035112 -10.499610812438391 76.89483049343373
18.023547394436992 27.643294653866487 91.89856841939891
-27.39599100107618 -18.39727363140944 109.39663567611512
24.460299101496535 -22.151608697007266 64.54540734789892
-31.416360873624157 10.100112348791821 64.33960109077
30.20595367233159 -13.289106920517938 74.27887405631961
-26.394646126985666 -19.807136487417882 58.937882332807135
-32.97324010971892 -1.3286973571221015 70.62203953644637
10.187628536347042 31.3880904931378 95.04294114066057
-28.53680920588806 -16.572583393869 31.403567940894177
-22.190828307973305 -24.42472392896285 67.50840994090711
20.08886376228548 26.18086233759945 25.79781077180182
32.9814149355328 1.1073702408021808 29.65176916194548
32.00336945853507 -8.048872175684291 16.33915078484833
7.175894855250559 32.21034822889049 93.93150896689608
19.867323578914668 26.349372930123046 84.60657842307545
-9.000193909497208 31.74896076395965 64.05784474588404
31.055934572029763 11.159253015224923 17.191272010935233
10.346225050440081 -31.336171227602872 103.04273016115829
-16.230690783600426 28.732641310661784 72.80320223411641
32.88801018057845 -2.7163921591273215 92.02390285810857
32.503105775436836 -5.7050955251218 107.86540938176083
32.87745840062707 -2.8412548486604425 84.85140387098922
-32.92144593652188 2.2756092477987653 2.9650149181653287
-23.271653778117923 -23.397224844656467 20.13085147300054
-28.54049158899855 16.566240969462662 23.01273219737741
-31.102878401846056 -11.027735720444975 37.69182629914062
-32.99871240384039 0.2915127589494385 44.89665152689386
15.908640292892814 -28.91219749571705 32.7160980792002
-20.141208855765736 -26.14061410580141 67.63164179163904
-17.391635279807776 -28.045160407709304 76.0057558666568
32.99974292667036 -0.1302565686243325 31.026545788008043
-17.62702672672109 27.89781225787177 71.12821635628191
-1.3457727440554934 -32.97254760738632 46.48490511127402
-21.634225078150624 -24.919075128662353 70.4781158798651
32.02288904682275 -7.970857989882874 49.31323890590636
-13.908863228446627 -29.925633221243043 101.8876263556438
20.92548097479158 25.51713632000338 32.978518286872564
-32.999998279118024 0.010657307711044428 68.02047513073384
-30.615268816429403 12.316871165103791 32.79288195516525
6.469034099662059 32.35972184394374 16.83532413843268
2.111201863693896 -32.93239782783415 43.037383141173464
5.622587897336471 32.51747999671447 33.14471048376772
-10.94089296603294 31.1335327437445 4.6489163896527135
26.5424994138419 19.60856253951835 37.01080930944496
-22.076301933564576 -24.528287607130117 43.027598124750064
30.005043787746573 -13.736715302262436 104.03044878630912
22.794495195743377 23.862334101492088 23.666227552082873
-18.562875765386583 -27.284054744828957 78.20847844383492
-1.3079426606501152 32.97406990343248 44.94030737264287
15.028374799341977 -29.37937968866094 74.7018192483115
-32.55509144003825 5.400557501846327 37.99711472454686
-32.920631794609974 -2.2873570433395747 87.83093302943053
30.822370717763853 11.789039966712025 64.77804768025645
27.098418972610382 -18.832835399505555 91.06762534622318
30.714124729384665 -12.068245195876713 27.682039830248016
-13.001902774911263 -30.33068618135361 50.655321969724525
-23.15360796492034 -23.514047678074856 48.423407890059124
-24.54402081380949 -22.058808723303407 6.426655565161623
5.829256436104193 -32.48106786117319 25.07804392132824
-30.472698111600494 12.665491297192533 75.19041801811147
-8.653437081847969 -31.845219840197345 0.24473225155014022
1.3528365066526902 -32.97225854239087 63.25136805723025
-30.446954342139946 12.72725309277872 97.0485447664929
-32.48021882569774 -5.833985347495312 92.86178779867019
10.023311123184087 31.440948365592504 112.76832615905408
32.87611754616572 -2.85672803932999 76.90539006325415
14.400709687314514 -29.69207908688251 24.66109233199188
2.5511217481485557 32.90124280063176 82.43789778327886
-27.652977151563093 1.8419268236544761 114.0
-14.983596351547856 29.012324023823467 114.0
-4.7742733195606935 -9.6227160012349 114.0
-22.3927877930039 -10.94744499682397 114.0
7.388395659696423 31.538647687711915 114.0
-12.558822248431769 -6.722526454351738 114.0
-5.492773590318659 32.23014521077505 114.0
-4.013593894013581 -17.04188972271596 114.0
10.857408229770227 9.041138261265097 114.0
13.702895437283225 12.566452395865447 114.0
8.113112751044572 8.416139813716784 114.0
22.54109951325944 -6.215585151003037 114.0
28.411978939844392 -8.663085919795412 114.0
-0.9432524611818932 8.89011596364779 114.0
-3.6517599807570265 9.097225138158166 114.0
13.764638485523642 29.266354689767102 114.0
-16.721554720955023 11.297039418066557 114.0
-4.795373125222244 18.718164371662777 114.0
23.356738979347554 -0.9701133923869124 114.0
27.26451158516987 -14.169578549407902 114.0
-0.9379745283283807 29.06698198822 114.0
-26.06243431829907 16.43924949615877 114.0
2.790540173973697 16.250041000353733 114.0
19.371820555688146 -2.952907875479603 114.0
12.284466057536545 -6.7198434229942405 114.0
-24.242786201951244 2.5280416937326238 114.0
15.009867470588146 -13.951518036826577 114.0
0.3843593431252073 24.077432668184734 114.0
2.729050263231672 14.754252722931348 114.0
0.22935703819759182 17.48256019944537 114.0
2.701044044785779 13.554196021201484 114.0
14.804907526966275 24.05031740673217 114.0
-3.162848545935297 23.856615832737244 114.0
0.18908718181418957 -3.498002213483429 114.0
-8.520573320530106 -9.877883198206629 114.0
7.8098239939867 7.397480209858203 114.0
-9.062348262045385 7.5382414772251805 114.0
27.683911515740167 8.977081107843587 114.0
11.742075884656128 12.476596595623693 114.0
19.524310944980694 16.49854585471501 114.0
-16.9995397130303 -15.19545343275439 114.0
0.33730436968492994 -2.9962265482521158 114.0
-8.400349044039944 30.623805328716106 114.0
27.928246186237242 0.3813540870224667 114.0
-2.4722062103916156 -28.020207882688933 114.0
14.082832855184558 9.812494420057005 114.0
21.90198706595994 -15.612540109697388 114.0
-8.698743139035948 -1.8901417762413255 114.0
16.416395454991488 -7.82191515573832 114.0
-9.708324084018372 10.909703107813389 114.0
-9.176012130353183 -30.621802309163897 114.0
30.43886617136164 -2.433650924057728 114.0
9.501988692153144 18.223205671571044 114.0
31.24622973264048 -6.721140591126572 114.0
32.12387824478421 0.6279705916010951 114.0
-10.383636701159885 4.2360247262119355 114.0
31.54593244788713 0.671325457518297 114.0
-13.318735279413136 -27.807197651575784 114.0
-28.539101803345055 15.077833282740846 114.0
-29.435561508399775 -10.784516060440666 114.0
-6.941468526081885 -25.602154909775354 114.0
12.743714528329265 -27.34065574899279 114.0
15.820650618312643 13.898858971469998 114.0
0.09982757014103172 -8.966232146839046 114.0
24.36778998974583 -19.224059018205974 114.0
-6.57791320121958 -16.699639223329505 114.0
5.552844628023792 -30.35357225014515 114.0
21.07895288432156 1.8397410976599335 114.0
-27.613923491841316 -11.025337828729715 114.0
17.40274720897326 18.4599317773256 114.0
-13.099028842599017 -9.114819499804309 114.0
22.32056584796906 0.49560784736895047 114.0
-14.31148459254183 17.649526260392356 114.0
0.620786038997795 17.182557442549232 114.0
-7.826248610108006 -25.229588115218966 114.0
27.985843613635424 16.697938855695444 114.0
17.24040101519968 -12.956160915568233 114.0
16.606721547945998 15.334934336415282 114.0
-4.167508430394938 2.3744327527772944 114.0
6.921435114966185 -24.434189956487543 114.0
-28.49611820282375 -1.7535738055995547 114.0
0.004724319192024003 1.836958562343217 114.0
14.547149121665683 7.349358938977249 114.0
8.42760203759307 -11.79431490106807 114.0
1.2529869179819713 -15.25843804005855 114.0
14.83491092668621 23.094056471561228 114.0
27.130570406916775 -5.654474326040293 114.0
14.352389449520274 15.75928756538044 114.0
-28.18983319942299 5.026811984087755 114.0
-8.6548962135329 -10.182102275261084 114.0
11.014056789064995 -10.338395059553422 114.0
21.29717594653451 -9.681397146221979 114.0
-20.01815678361319 -1.590001738317751 114.0
24.086592441380265 16.88362798235511 114.0
0.06107812260596067 14.188100254759648 114.0
-3.0148333647897165 26.799002561157927 114.0
-14.052428125248063 10.561369319209438 114.0
26.691934805161278 17.660005070051515 114.0
-12.165779765789955 18.28484691671822 114.0
-4.189020346486712 -2.5429785160857112 114.0
-10.281567897959238 1.1312909648888017 114.0
-6.376007743040909 -14.71039259758992 114.0
-26.049322971648913 -7.206695871516403 114.0
8.566279425584899 1.36230262887991 114.0
14.063440971801349 -23.0968350346761 114.0
27.1173690754941 4.750903051662244 114.0
-7.2366937162340035 -8.950713687717208 114.0
-2.7776459415063464 -29.697354018906307 114.0
7.250444656718024 1.0428880023547784 114.0
-4.611854637285316 -20.737345273228552 114.0
0.21805971850292677 -9.488057130832864 114.0
-9.562597145001122 27.91121217125619 114.0
23.08194169084215 -0.4207883209672146 114.0
-8.028746240544361 16.51069613054117 114.0
10.821542226299334 18.549288604026874 114.0
-18.54635760586279 10.047212186554823 114.0
-8.817274815072885 29.46125394749841 114.0
-5.767770781081137 -28.7237088314262 114.0
-29.33533912179879 -3.0084083357392637 114.0
16.490700858014943 10.898085850511857 114.0
-22.20300278693179 -12.302565402344936 114.0
-25.59604701264789 -14.366780328615187 114.0
-12.810636509733222 -27.89996226726849 114.0
-20.852190466562394 23.732939686708047 114.0
12.61739432845797 -8.51189941637582 114.0
0.3777961817041422 32.38451852191407 114.0
-4.076010556557023 -4.880922370854968 114.0
-23.027737782695347 -9.917007609514362 114.0
3.6995139928687166 21.384396091401605 114.0
20.684044819403596 20.113547934230315 114.0
22.60270961149304 -23.667686244091364 114.0
22.08626505512262 13.79983368285656 114.0
-10.883754918289648 -16.828748452925733 114.0
9.503625274297315 30.25083555361897 114.0
-11.692467626593778 19.5514126520861 114.0
4.429077240947993 -25.17537647118117 114.0
5.692769011962806 -7.623952982466835 114.0
15.418593116873657 -10.08001819811711 114.0
-5.5508836085636535 -9.020501089937937 114.0
-24.942398731194388 21.055118208929922 114.0
-12.308548045290095 18.086173615556643 114.0
11.767231196214679 -13.069378058684537 114.0
4.599968151099341 1.0014245038115062 114.0
2.8852412252108173 -22.578674287270868 114.0
6.736527812341014 21.77810917143636 114.0
18.055284023819677 13.028754775563373 114.0
11.52683586308637 30.431828976982906 114.0
14.101583887523429 10.15520799405546 114.0
3.487062094928878 22.64855020668074 114.0
25.04417115974751 3.02463917781583 114.0
-16.000409743322244 -2.281207934537073 114.0
10.03559044327572 7.828641207671494 114.0
-5.145525274212979 13.776346609459193 114.0
17.729201216829676 18.22617554075623 114.0
14.698873850554849 6.742503514965957 114.0
-7.428227103996441 -13.164662035097816 114.0
14.39912739654403 -20.075875833125057 114.0
8.404695242548703 -11.450219069769288 114.0
-3.4448408904632273 20.348575413358326 114.0
-21.078609678064478 10.760999279865564 114.0
-5.845744940897516 4.602769504312648 114.0
-25.25553903558387 -2.8959820926043367 114.0
8.771098652145113 -2.4278201326015885 114.0
5.775327853160259 9.481241794193494 114.0
22.940655610598874 -6.143637545081729 114.0
-2.5559783218901093 -18.740537777628578 114.0
-11.894541238679283 -2.167602647039657 114.0
27.621271686801155 6.748024117293617 114.0
-14.376744811766338 7.893723020370142 114.0
-13.622090252353617 21.233147016008537 114.0
8.200182200870003 23.03375442382927 114.0
22.85763323086358 -17.878206820058047 114.0
14.570419494007906 24.351325158388843 114.0
-20.842153159990104 -13.771440742645392 114.0
14.269733938509834 -13.10694770857878 114.0
16.76521088732418 11.976893274216167 114.0
14.435237856363004 -15.579656876284018 114.0
11.724941276263262 10.527587726431038 114.0
7.8758890759212745 -24.20750522876737 114.0
13.64719070112175 15.718093378578978 114.0
-2.7996320451153354 -24.611032757101764 114.0
-17.35612117516701 -12.545287291685668 114.0
-29.82715929773284 3.752878243991333 114.0
3.1165442732108497 13.077327143923766 114.0
8.055864599327798 -2.5109888845283237 114.0
-2.6827252656346814 9.509164703054399 114.0
-4.1049452775307484 14.227175644430789 114.0
-19.974747200807048 12.769319066156035 114.0
-8.407055287447498 29.957650376196366 114.0
-12.386047384277065 16.20909378691517 114.0
-22.876817185513467 -0.1897887240467206 114.0
-21.334585694883554 8.43332776746786 114.0
14.415956169745668 -22.6721025929785 114.0
20.375669083417105 -6.068343701445861 114.0
-7.667698931570194 -7.953405272624186 114.0
-8.170649772480578 -20.094057141867193 114.0
3.4904635916326883 -32.733774155687136 114.0
-12.612538446605603 1.1114229379665244 114.0
-3.414491969402992 1.4367729465642984 114.0
-22.798876156574533 18.09771988054716 114.0
8.929950083280401 9.014730190531255 114.0
-2.58713311269969 32.22812678550288 114.0
27.85210427036735 -8.379920673408503 114.0
5.59157956820178 -2.4201636132116757 114.0
16.645413164186312 -0.6102919248538756 114.0
10.481730742548084 25.370335706444965 114.0
11.226639979124814 13.602312500495817 114.0
-11.911972152572304 -21.900684370978283 114.0
7.004006237950573 -3.8790946856958626 114.0
-5.988315854822711 9.467025398918297 114.0
0.987105657172467 22.063661040981472 114.0
16.516710189559777 -16.462063773731607 114.0
4.903303530959605 3.2015914182792047 114.0
13.093210732417948 16.99215411210593 114.0
-14.039361640115487 23.022118102698002 114.0
15.836420927557553 23.516732598285568 114.0
11.660610540893854 -4.75805721394168 114.0
0.24267692411242467 -27.198118300881266 114.0
-8.916565748033058 -1.6734766986076335 114.0
19.8228344802567 13.97602367186926 114.0
28.976620905181566 -14.242250165058788 114.0
2.6540164018907095 -30.17709327767648 114.0
-14.29717708055441 14.414309145334132 114.0
-12.13292685885843 24.214509457110722 114.0
4.8817848797024475 7.557181214644076 114.0
19.637971905657068 25.461160757209097 114.0
2.553477946297305 -13.231491139244035 114.0
-25.20281358231744 -18.191465572311234 114.0
30.67372271284261 9.439513486142014 114.0
14.263732287098643 -28.95558662622086 114.0
16.709746932114445 -8.020216208844476 114.0
12.120345315345798 1.4915510087477648 114.0
9.818414518231112 17.905572737253298 114.0
-7.834300547682541 -16.296965011118168 114.0
3.383229910914125 -1.3497706668745 114.0
18.038944372355136 7.654772422984933 114.0
2.087459549779178 3.258255779413965 114.0
-9.423644715307152 23.967125046910894 114.0
13.03478135602076 26.989468142543128 114.0
4.566326777737947 4.514060754628128 114.0
-13.701463775181042 13.27889297080654 114.0
-11.405067529372124 -20.306792048666402 114.0
-0.6710173090916328 20.334076983335066 114.0
-1.8703106858669583 -1.8483597147955062 114.0
13.159448490856095 24.441210932446005 114.0
-20.902950545935308 -11.054493007250382 114.0
10.215581729326535 8.357073095333945 114.0
7.787304194964063 9.073239003280207 114.0
19.36883335307959 -16.151500578567013 114.0
-22.320175706430774 -14.134087946113434 114.0
-9.379291797511753 -27.810175980067143 114.0
16.135221644164343 -20.039442263401824 114.0
-2.0776982985710744 26.90503658426953 114.0
16.77787836086899 18.206993551575966 114.0
-19.91301445870086 -24.122353651215114 114.0
28.246091807296246 4.176563403909962 114.0
26.808772322722355 1.6543141172759468 114.0
14.218641834224234 -16.660887244980337 114.0
-27.38553242610528 4.854658299665451 114.0
-13.700790686929873 -10.893735056473975 114.0
-12.669330829214548 4.192834728163406 114.0
-16.847224846308183 3.1936310678012836 114.0
1.4756596523463255 9.07153278621324 114.0
-25.12801706923975 0.6235849955988354 114.0
8.633694705288555 -10.961390789948663 114.0
-31.163439685628113 0.17163606973916976 114.0
25.749211988511387 -15.094802819196627 114.0
11.862368712113865 -9.94325792499911 114.0
20.688055971139566 10.815747304581276 114.0
-11.184890065203595 21.514237205712192 114.0
-11.372364347029578 -3.0015758986637637 114.0
13.5285552050953 8.031620621589738 114.0
8.606278383220726 -27.68203791491795 114.0
28.55010395251183 8.17674958770514 114.0
11.005645284971038 14.562975555801636 114.0
-9.755775505115936 -12.038849063460649 114.0
3.051674020126229 -6.1670929784322555 114.0
18.940498724809192 -8.047423744564986 114.0
22.753597059174727 -2.12083964473528 114.0
25.86139047036363 -14.35454481806983 114.0
3.1080361254483804 -25.232386099790833 114.0
-4.579753576771735 31.923785405304567 114.0
15.993741625448413 10.36030983668906 114.0
-8.871082087683074 -15.62315469634481 114.0
-7.053035875754925 31.05858426352159 114.0
23.741223904071113 -7.810107958414703 114.0
-0.9268907449325035 -1.5622237434424553 114.0
-5.2411403036763256 -10.681562171844593 114.0
-28.917393726970975 -2.99013171099533 114.0
-31.194252718529107 -10.07389953194032 114.0
-11.202008671116658 12.919672333882263 114.0
-22.516036718089808 16.767190329995184 114.0
8.43850133555089 14.687888942913577 114.0
27.435532733390342 0.19896700281014057 114.0
-3.916151700147069 10.03565588203156 114.0
2.8503999248852785 30.180460807214043 114.0
-10.589848729259252 -13.60309203160569 114.0
-20.34605874153818 21.865968355424112 114.0
-0.6217211641615169 -27.781318945873757 114.0
18.407188485514492 -11.007612242805616 114.0
-24.342051615062868 17.279453462327165 114.0
17.18198301207979 -1.8853465950530532 114.0
18.14141132296667 -23.72040369521352 114.0
-2.5386946917791144 20.252831162983714 114.0
18.158445332575873 7.10289025526003 114.0
31.24754507119997 -7.658886565085197 114.0
14.937465398355007 23.135420907677425 114.0
-14.827741179618972 22.70596841201925 114.0
28.920043723565957 14.16439631782826 114.0
8.121667801725861 -25.86009076948839 114.0
-5.772050912542869 -1.446326199765551 114.0
16.41536798478403 -26.114163336155535 114.0
7.400494522637426 -10.392037166260623 114.0
-0.9375443383983071 15.070368879982794 114.0
-28.582982699247246 -13.530473082168557 114.0
-15.668645003722904 1.6469596524382681 114.0
14.351266216922895 3.549080908470715 114.0
7.400176498491322 -15.237315045487177 114.0
13.30009976211278 -28.382419131574096 114.0
-6.3219236279076645 8.898774123465213 114.0
2.4391803323075067 6.639065404049635 114.0
-9.05118453649561 -7.549995534061411 114.0
3.0101271575635304 -3.50261447986508 114.0
26.333526611940957 8.557040743653948 114.0
20.822963864346335 10.750140672509398 114.0
14.167691351398709 -21.472151302658318 114.0
11.241231355018472 21.507199469973475 114.0
5.148414691175595 17.437595956760113 114.0
-6.6750693347236245 -7.46133055373919 114.0
-28.165184086087596 -5.231922448610201 114.0
-2.201776939132633 1.226258560930283 114.0
-0.34825174072689274 -26.179142080581073 114.0
9.006665614753746 -14.809817875462212 114.0
-13.956414168819277 13.591503087634381 114.0
30.594125895894177 -11.948123169794755 114.0
-11.92662879302927 -21.821244306400317 114.0
-7.0202766539538395 -12.377438718181663 114.0
-25.38945036855471 11.625158463693877 114.0
21.72955157476983 -18.892819241345702 114.0
-2.8406584996153312 -24.299940344579184 114.0
-15.529815895686534 -9.897059710933592 114.0
21.744624488805684 -23.043249476373756 114.0
-17.032477929635743 -20.385352702107376 114.0
27.776684756074 -11.856043417964825 114.0
-14.11161846507574 -12.835127478139041 114.0
-31.6776932748529 -8.366720887006519 114.0
7.607454563812593 -3.905326329870102 114.0
-0.9262013728175168 -20.902388796812158 114.0
-9.182499117520868 17.21096038857987 114.0
-2.143068206651345 -17.60645558904018 114.0
-5.132475406133423 -26.475853488077515 114.0
-14.560071490449412 19.10342225151935 114.0
-31.928234880564744 4.8138006407104745 114.0
-9.749038910986489 -13.368696610950359 114.0
-20.16000260518612 12.158123988212342 114.0
27.31507738026105 14.366091343266968 114.0
-26.047332667142314 18.66734125735498 114.0
-2.8786369842264317 15.77830326558286 114.0
7.969048201697804 7.730525467027719 114.0
-2.861253557234088 -23.41799928164285 114.0
26.702362708508904 -4.80758613571817 114.0
4.04240643180696 21.7090894385684 114.0
27.94324929462822 10.720746515299389 114.0
-3.518430365194622 -25.178576295416622 114.0
-28.166731991650334 -11.343554601445272 114.0
7.596834060734198 28.71482203268078 114.0
3.2939930456245587 -4.245026966917043 114.0
-25.96489517822822 11.872698824689078 114.0
-18.7969320860637 -15.87800028505825 114.0
26.80102070080819 12.080902119165252 114.0
-27.26031945191843 -1.3398867539930754 114.0
26.44399885997727 -18.458698221697272 114.0
-25.656009283624424 -12.203382941003625 114.0
3.9753652938747717 9.224361214863864 114.0
20.294993550622436 -24.492990203380447 114.0
2.2863154764091735 18.481459881018218 114.0
27.996141870839168 -4.997571113236679 114.0
31.013155406307984 -3.905597451425928 114.0
-11.410146042725323 -5.395905078810845 114.0
17.420179590350717 4.8123878184738045 114.0
10.67884431785297 -22.289075907535526 114.0
8.120158902164953 25.977039295574702 114.0
30.228921263131447 10.490560003107063 114.0
-10.585173970397307 -7.876778854705542 114.0
2.363887677208482 -29.195380983488803 114.0
21.25642821979699 7.834792609946343 114.0
-5.939955810266237 15.581924484552204 114.0
7.413450553084666 29.498911880489118 114.0
-24.36865983677224 19.56494075080056 114.0
-6.51915153671042 26.28681026844309 114.0
10.012429892158702 -9.416635198561321 114.0
-8.735137238800343 21.4133231275484 114.0
-6.9843200724787575 -8.625612630555244 114.0
1.002898600011404 -19.441519756430097 114.0
-4.821477522190426 15.418364928339344 114.0
29.518572660798228 -6.449789415358017 114.0
30.15837703644959 -9.623764216382286 114.0
-14.912925628630134 5.209842952706036 114.0
18.917091360922882 20.669151401375963 114.0
10.540260194774463 20.197228227584205 114.0
-3.3247220246051414 20.99566607134373 114.0
-25.750989767992774 -0.11258379832637717 114.0
7.222904548695451 -25.36393439570034 114.0
6.829419183273751 26.288349059077355 114.0
5.069858910191686 12.538886520919757 114.0
1.943479632242421 27.386224982241703 114.0
19.626767089927093 -4.571954743446542 114.0
-16.229510075229122 10.10560820923388 114.0
-4.683638480292367 9.362622419816715 114.0
5.473061709067545 -24.459394821238792 114.0
1.2494723459844337 -16.833318575772154 114.0
8.042253995908224 -26.7769563055694 114.0
-3.1295299716757063 -23.69685149305997 114.0
-10.56335437821088 30.860551642096933 114.0
-11.157596303963452 -29.3850988689397 114.0
-30.610737463500552 5.465760873320165 114.0
7.263517161728224 -13.009710222145607 114.0
-21.829177821952545 9.155754598494712 114.0
10.779259017881136 1.8452805547212425 114.0
12.124544817428028 -15.81738537800948 114.0
11.191183413878395 -4.156307867535151 114.0
32.75639031315185 3.82741849707072 114.0
-11.623004695253966 -30.70129591650552 114.0
-3.3850366598355373 -5.574373516613656 114.0
-1.9670691507059772 -13.273045752409418 114.0
-18.225700336116056 -24.752545195402785 114.0
-3.913176699052089 29.83017888999657 114.0
13.611242808613596 -26.118854773031206 114.0
22.51443076375461 5.308410137679567 114.0
-9.973324844230707 3.1708448161038776 114.0
-28.640335847715978 -9.679371815402181 114.0
7.283233627159766 28.60324670290027 114.0
-26.138865329632235 -4.7439996811211795 114.0
2.1408397569377833 -24.54810140680686 114.0
16.930992777410243 -16.57911708279222 114.0
-23.426937633537392 5.926937727611995 114.0
22.122800367777888 13.681505602700827 114.0
-13.328376835459453 -8.317257368976422 114.0
10.377684384188097 -12.170946915391424 114.0
3.0539190937458334 13.015856260868862 114.0
12.834789762815777 -17.745680670007534 114.0
-1.7065302601681753 -27.202100637244236 114.0
-6.2134789213194725 6.791132452574363 114.0
12.066651429295733 3.6769699052470477 114.0
10.90361615154917 -24.14145274849035 114.0
-6.088229519668082 -11.348395143126409 114.0
-16.645204418025518 1.4287861326742581 114.0
-4.528672484085358 27.00355158504429 114.0
-11.10798016932849 11.208457314422372 114.0
7.224442958632279 24.683690911535635 114.0
25.66293299301351 18.440455219764875 114.0
4.179674719440461 -7.723990888581524 114.0
5.471771560438601 2.264678069340504 114.0
24.44697318337495 8.30530892446622 114.0
-20.875647063011893 -9.766156251990495 114.0
9.222168590169955 15.022146765203344 114.0
2.834430300088618 -18.49321075012842 114.0
-16.0289106906875 -28.79827672979227 114.0
3.744897615446308 -27.38078684753016 114.0
14.422776784044038 17.84106007516012 114.0
-29.40893716047783 -11.571107534174976 114.0
-4.458128570676008 7.021968342512727 114.0
1.5464396052744682 -20.085884633248693 114.0
2.258629909838907 -12.457313225353444 114.0
-13.962955013599808 3.8595604125665486 114.0
11.330426663128568 -26.211512604401438 114.0
15.871289895120658 -15.101416922892867 114.0
9.349308030494498 28.055131505869667 114.0
16.54740600371296 18.462856032603774 114.0
-14.199630286428674 2.4821228972667315 114.0
-16.321441245478322 -26.902246192131244 114.0
-22.47747040624473 -5.154566433275733 114.0
16.275121401909033 -25.450037708812335 114.0
-19.07458412465249 -15.976161894488795 114.0
13.44303792909253 16.438959433367636 114.0
-27.236799091548203 -0.6748621997166082 114.0
-14.171876962101393 28.43837958825039 114.0
8.780246426505178 -8.84233134215119 114.0
-16.01727746507129 -3.7653800747748707 114.0
-17.074942180690552 -8.00230163959971 114.0
10.09708332235225 -7.37392978771333 114.0
-17.16954913916646 -20.19110018456346 114.0
-19.403291604849176 -12.01792280599533 114.0
18.693489950507526 25.274483551553438 114.0
-1.2027979243838758 -30.774204452634958 114.0
8.802625894614915 -22.48889613117243 114.0
9.560744592956159 -23.782724650187863 114.0
-2.769462483904308 11.843519201821659 114.0
2.769140172992065 -1.8686623559670121 114.0
10.63164961024801 -1.9790306363674954 114.0
-17.689824805775736 0.1177660066310707 114.0
28.922089141009412 -15.047223436618003 114.0
-15.89318084886715 8.628541106324725 114.0
-4.612029214970537 -22.05842333493725 114.0
25.63370243134426 -9.005847335864749 114.0
-7.814283883268872 -11.660246053213077 114.0
8.078364192341398 4.783591202090534 114.0
23.794856174118358 17.06044554861262 114.0
-31.048051654440407 -1.0427068002460387 114.0
18.89200509920828 -9.236700612571022 114.0
-7.467180417421801 -13.349820358544278 114.0
11.613501395446301 20.13872315220234 114.0
-9.37848541417026 -26.665026408681015 114.0
-5.045547179003416 -4.027561581537483 114.0
12.17731685971628 20.665635892482417 114.0
27.728358718131812 -0.9921341379648126 114.0
-9.583248721096748 18.23956928229348 114.0
-16.57501276744439 -5.8554549276733665 114.0
-15.25843088334003 -15.669473724958557 114.0
20.74791106569074 12.741155526211951 114.0
-16.234382886044664 4.6027784631145225 114.0
1.1656372415695633 11.325604020908367 114.0
16.851843977232964 3.305656940907535 114.0
1.571547737900481 12.225957353230491 114.0
25.772130267901158 18.656020061117 114.0
5.263020837329173 -27.197705802672967 114.0
-10.497946586344632 21.461208585870235 114.0
-8.340148523226356 -1.0158749482707785 114.0
-19.31297859644554 -12.814895550293325 114.0
27.241302095211758 9.590631780551073 114.0
11.596503280042754 14.588566353180648 114.0
-21.97972623083623 4.420806917240112 114.0
-14.57121772187178 28.034666008228914 114.0
20.579900312816243 3.6408435383541113 114.0
4.276991795345575 27.202907789576134 114.0
19.573442933818704 -8.071556235448845 114.0
-19.08007757098777 17.519653059721364 114.0
-28.798751496566737 -12.936867112151612 114.0
-23.12167297286153 18.91727331569675 114.0
-9.960329596140456 -0.15461377338622853 114.0
-17.3968585362216 -19.74063077772875 114.0
