VERSION .7
FIELDS x y z
SIZE 4 4 4
TYPE F F F
COUNT 1 1 1
WIDTH 945
HEIGHT 1
VIEWPOINT 0 0 0 1 0 0 0
POINTS 945
DATA ascii
0.9627876442757973 5.411367817328087 1.339977593853666
-0.6812318625069852 4.187450147885715 1.502805093651623
-0.37066107893654704 5.074236302218231 1.6078278404610347
1.5301030329125982 2.663463788607137 0.6174825573825287
1.2064081995934288 4.6823371560497735 1.125646150419279
-0.7560431505920947 1.2082450443087365 1.4665942705611457
-0.09611344379089799 3.378568346458556 1.647198289800792
0.5546220543990409 3.4105253340668944 1.5539930427045634
-0.3640910799634312 1.6822700204036214 1.6093283336507382
1.4428266716171902 1.239232760075481 0.8004693596072623
1.5322261422902657 3.702224286869479 0.6121952702220839
1.4489742124762912 1.5376342346646616 0.7892868499973322
0.7666993673448189 1.8560352524508938 1.4610517034359374
0.13007850182352762 3.5782237714635303 1.6448646094324437
0.7122421246421458 5.419307754006029 1.4883585441301574
-0.44853729136473497 3.052481811548841 1.5878646977167754
-0.1600756536510551 2.237114596911569 1.6422167290306682
0.9054281740961113 5.57444725604296 1.3793838557678504
0.6675394155749481 3.0779352982425805 1.5089370857175777
1.6387367724289357 3.2401511096593794 0.19246243968419924
-0.759453734647975 1.6819992354855897 1.46483105678752
0.26804087612517996 4.897178559676113 1.6280829489697526
-0.3605725034388778 4.677781046261758 1.6101203277282787
-0.11617413716503622 2.1670236200624924 1.645905091387094
0.7648738240307404 0.9587071816412661 1.4620082193040473
-0.6984051851933443 5.287902506035397 1.4949014005261518
-0.2532201557279882 2.421118502058182 1.6304537873650675
1.601113866209735 2.467741959697401 0.3986657590399687
1.5779891875209502 1.2488440941508872 0.48213081634238125
1.0518840016232804 2.27597284740073 1.2712356379243757
1.5150678725256748 0.14186326893192677 0.6535054258692315
1.6255495239097446 2.6249528462232607 0.28299955002932903
-0.542182043083583 0.6881141863632891 1.558376922364327
1.1023857596584195 5.595667987090843 1.2276993267499698
-0.8077572226603456 5.674946961843798 1.438759281200314
-0.10498399082926937 4.6530753094073525 1.646656722474226
0.5037208676276501 5.3767535236483175 1.5712305010775622
-0.7964174709654328 1.6795387322811604 1.4450671998011109
1.5287944318283244 3.6579679863528543 0.6207153818061144
0.5829174095145219 4.716709414095284 1.5436020515938942
-0.03381640896739904 1.4440021999326391 1.6496534334473254
0.7180592643532664 3.2044843861135304 1.4855608008009789
1.4466933866033787 3.376018631761514 0.7934596682617505
0.23824079375492177 0.5350280560450152 1.632709810159486
1.6031296817583554 2.3632545395543136 0.3904807594048055
-0.8195752438093061 3.4592640035797055 1.4320602011559835
0.41653847116073267 1.4291175111046543 1.5965574534112699
1.559668020384597 4.4744921507599775 0.5384567449569115
-0.2158872005719988 3.544491297097543 1.6358156120508158
1.3322185015360837 0.12631530013370323 0.9734956929360046
1.6363616636555283 1.2911323848786866 0.2117085395502777
-0.7223649343648175 0.7320046274184981 1.4834719079241483
0.8979251784817351 1.0828148063461485 1.3842797310690291
0.43084842023493963 2.6013632351166653 1.5927553606191558
-0.48205602090242794 0.673800617235624 1.5780120382024079
1.3996804042290842 2.695397952495567 0.8737246511442305
1.5079768141066254 2.6221663607073196 0.6697058519356328
1.0506221990385853 3.041435852210397 1.2722786624349742
-0.212815705266032 5.221712650973359 1.6362180403577393
1.4757365605738142 3.0047206395773776 0.73803902592327
1.623440880422607 4.207262193550354 0.29485540146429523
0.7585315176970796 5.548131752931116 1.465308819553122
0.44457326528429836 5.527246552192829 1.588979109930164
0.7304660525883538 5.46180334338556 1.4794996944967538
-0.5669874004931563 3.018554764301104 1.5495242133255012
0.5871289756036406 2.8151442861674036 1.542005047335001
0.41096757944697226 2.4096773803519107 1.5980005158458168
1.0036794481952251 2.8905475157726164 1.309628789111834
1.178669723172795 2.023523951674977 1.1546591201197722
-0.672613856072011 2.6255260523234747 1.5066819839036836
0.18670835815440115 0.7955393336190744 1.6394023267628017
-0.7539409763016005 4.607076121607114 1.4676760556244655
1.3682281946727937 0.813525020458068 0.9221993316536438
1.0282372628237415 2.0673535022108407 1.290437186127531
0.9548416024442147 3.5462575120532787 1.345651334574363
0.34688051459870467 5.6395930617484495 1.6131255092495864
0.9853564133860484 3.4921963453630833 1.3234699613512135
1.4129182513199987 1.184074420114457 0.8521514038519425
1.5642601968968979 5.527053585048528 0.5249667002811491
1.103628385484347 5.129491909702698 1.226582401126485
0.6723245711230141 3.2482650247782945 1.506811093357178
1.649397508706931 1.8036874059524823 0.0445854042414012
1.512473969495277 5.1582235163465535 0.6594865363289836
0.47365453259521767 3.0876952723287117 1.580554138190782
0.8651834157865712 4.556836971978716 1.4049760343322162
1.5524097622079023 1.9883060639742962 0.5590383977882057
1.6496121923700908 0.9491916149721863 0.03577170367681917
-0.037817847246203795 1.1659592350470473 1.6495665522887104
-0.7029021276996477 5.628345305428949 1.4927922155729871
1.182827605372657 4.874671068922513 1.1503994332267318
0.09162390390088403 4.056603886564992 1.647454114758272
0.9843227193272877 3.887506535982849 1.3242389452874934
1.3457292822090325 0.5595709119471226 0.9547317419072027
1.611636922778534 2.5175725825189574 0.35373214320575613
-0.16620276798490977 2.7141354137770306 1.6416079434244202
1.5998402136979102 1.2877372949461239 0.4037465673352831
0.49198587248517395 4.990642106202926 1.574944412122219
0.0718700447546231 2.614154312912876 1.6484340134403221
0.6800744176370207 0.02896122601420793 1.503329234225047
-0.05721878770833458 2.6669784452169716 1.649007583467459
0.3043751592012128 5.345990794407146 1.6216830030746565
1.1064226854432668 4.7767088850587225 1.224062433512486
0.24672249288865405 1.8417013156073574 1.631449665635691
-0.451096228461003 1.0059752221757663 1.587139626078392
0.3237265272813975 3.23799791701532 1.6179311281801603
1.6494874792316128 0.8455050854534804 0.04112244956395013
0.5346465848973346 4.935813445530202 1.5609782283099327
1.3476227451071947 1.4938147968476194 0.9520572130233291
1.22864224101785 5.299882096935571 1.101334755461134
-0.17280886568519982 2.5681446910834977 1.6409256826378806
0.6797457301587019 1.0287444811648052 1.5034778822220873
1.5585637972527961 4.517134177064617 0.5416446158626009
1.3271818927072565 0.5773559391479894 0.9803510716421865
-0.5960941162498193 3.863219079878232 1.5385616024626205
-0.6988626324013736 3.7817592502729402 1.4946875998124232
-0.5204093324407822 5.250228729374967 1.565782273085418
-0.5624442390256906 4.344253028498511 1.551179060581599
1.0316140300434657 1.7581839735776996 1.2877392954389018
0.46733756678232125 4.848897438329402 1.582433442099218
0.6265952079270313 2.534363794841367 1.526393935195918
-0.7425107983469262 1.0542569406437234 1.4734916743362378
1.2993698206193125 1.6848456047789415 1.0169257933909117
0.40556853795729914 1.8521894602210784 1.5993793049240004
1.2886556390219708 0.018415486190017785 1.0304691378284339
1.0678978029349038 5.225229848345838 1.2578132939696596
1.2136034205118764 3.8763863611989047 1.1178849393930814
0.8469828092320028 5.605084357339985 1.4160226413675259
1.6474926398375174 3.5868235218892486 0.09092855261801888
1.0667889675539477 4.904594216712877 1.2587538674042604
-0.510912683952446 1.5496521864855468 1.5689066987480509
-0.6239035971096594 0.7420194256146704 1.5274960888701574
1.256014614253048 3.2061550565509083 1.070012751691664
0.8058814956176052 2.9042051162353157 1.4398107566694769
1.5239533988115468 2.877704278505011 0.6325077377002862
-0.45966502932897985 2.3887641300714084 1.5846791665229867
1.631762905637877 1.244136709746357 0.24464222812963435
-0.09369797306011857 4.275383959513737 1.6473374547567432
0.8431821953033809 4.2362913067227606 1.4182890345495065
0.1070262833894167 3.15364261683416 1.6465252426439894
1.2556709255575549 0.5690913429494802 1.0704160530884395
1.6285436127763044 4.433678698395904 0.26522764050057407
-0.2046695983957448 0.07256374402424724 1.6372569607402878
1.5221618303871973 4.785657486230503 0.6368071624222646
-0.4329557356228493 2.347527584208108 1.5921838244974345
0.26968611938882486 3.4396825100693427 1.627811228923365
1.6423559164686843 1.4919219611837635 0.1586412419275255
1.2703880357806316 2.9178588084560158 1.0529075166155042
1.3319211282246872 1.2132339139839308 0.9739025147255119
-0.010460596293204108 3.7730475761730773 1.649966840856261
-0.29723933224804067 1.5346194295972677 1.623006093446583
-0.703251727774673 5.327368174332764 1.4926275514614946
0.8459881105929958 3.1510615128360384 1.4166171383741242
1.3754481597907084 3.6943842460481204 0.9113958304317359
1.3259193718077307 1.1608229163840413 0.9820579511744673
-0.5680641697209299 4.8108810170011385 1.5491297876805774
1.6499351587631539 4.220863293752215 0.014627777589447673
1.2178737197434149 2.0480524280892283 1.1132311542345272
1.4634263412468849 1.6467326453758513 0.7621570335204916
-0.20699905665832594 1.5730728183205671 1.6369640773525127
-0.7971218113589421 1.4559509222538987 1.4446787940078025
1.57164024011148 3.8876165535130465 0.5024409971950232
1.4115226690924911 0.7983572538306154 0.8544610901837542
1.5748182142235814 4.575674198944034 0.4923896751046371
1.6069039220295853 5.138793991487731 0.3746462136014938
1.4690383910087095 4.472910148652395 0.7512830397011112
1.5912131985888747 4.088377242456018 0.43650951494390366
-0.4400089866777769 0.002378650250179193 1.590249065914769
0.886238734912714 1.5845509653306447 1.3917905391043264
1.6400940610507944 2.8770440866779223 0.1805310801660283
-0.2782277780129628 1.1972008293907392 1.6263730517756279
0.5223990162560496 0.9350247793943708 1.5651195698139841
1.6143441011599906 1.050102073888408 0.34116436368697944
1.638835115863293 1.2435000611787426 0.19162323192490757
1.5718578511132089 4.710389573262915 0.5017597990012402
1.5729580000018182 3.4974924976321593 0.49830024104979065
1.3040568814011098 4.53159231513144 1.0109083292121062
-0.5842613648590287 1.3084738887213923 1.5430938589512515
-0.7175331099115781 1.251641054236347 1.4858150073884093
-0.3179337344460101 1.7382653568278235 1.6190794114252747
0.65486010273351 0.4113697680713214 1.5144828311499132
1.6052606872409876 2.032866087363533 0.38162563592949533
-0.4220837166542847 3.226760851993987 1.5951004156902804
1.6456165360441912 2.8731824102221584 0.12019241364544038
0.9044131423278652 2.323660612066757 1.3800495889585405
1.1645150601812502 3.1563955949590436 1.1689331352182035
-0.22683434767281588 1.5719852313673042 1.6343335579727436
0.04945820076604808 4.196212416640444 1.6492585868738066
1.059096046057406 1.3447890893853964 1.2652334034578636
0.7069518612990668 3.9570145962603482 1.4908786220902708
-0.5022737867571205 4.820255644148493 1.5716936861668251
1.4908740975846047 4.824886671591318 0.7069614028723852
0.4925080393109564 4.327206980058388 1.5747812010606672
1.1420845739243353 0.23777493291514346 1.1908580209261177
0.257888527864597 5.543260681197108 1.6297219110007175
1.0648895707955972 1.4746191554927872 1.2603611395194507
-0.37063639029674916 3.612961377281317 1.607833531864476
0.04731454372662866 3.3795056764228315 1.6493214768358353
1.6408720185393326 3.7761800730255954 0.17331768165612899
1.3363682087259319 4.465431614599279 0.9677913053477201
-0.3839586114018672 2.345302452401359 1.6047042670630465
1.1801581362010145 0.2734986710969719 1.1531377946969508
1.1723912985448646 0.5540685921726628 1.1610334375444515
1.369855527807087 3.5167298901798807 0.9197803177587389
-0.5943666535374804 1.0135225276648563 1.5392297688008298
1.592500009565525 3.3310569594230746 0.4317912916372939
-0.26215098871693615 3.864693614772602 1.6290416996242707
-0.6650889222782506 1.2599876241364312 1.5100187831489895
1.4742856091522123 2.9748706551353337 0.7409331566657613
-0.297661172927239 4.0360466650723605 1.622928780363322
0.8165119896191116 4.917463243334298 1.4338089729138395
0.31787130490761434 4.220305348005988 1.6190916692751929
0.7863608574799676 0.7599727707319216 1.4505642356763693
1.1235620016396086 4.713441706373974 1.2083494645472375
-0.005481791347052469 2.9189387527942854 1.6499908939032444
-0.14994674558833757 0.22064597173174322 1.643172533085758
1.6483147630012702 0.6163892736153359 0.07455496007688396
1.3387630462583564 5.333101500627478 0.9644757674369249
1.5047662536637039 2.6501562577318327 0.6768888548609006
0.0807125849952656 3.554270294400481 1.648024720270719
0.19306945617153484 3.290304494450225 1.638665367026968
0.8677918605404247 4.247475489132002 1.403366412160341
1.6495195248596353 2.5293412475844135 0.03981629197756251
1.6329306486966473 4.236125082763835 0.23672240398227337
1.649977839541117 0.7177403640838177 0.008551550925281277
1.435153754174478 1.1981769347931732 0.8141459954325768
0.04611510752873969 3.511736935825114 1.6493554489125781
1.511731018395748 5.683533197903303 0.661187815994937
1.163091106603647 5.253795419039323 1.170349980877303
1.6451197452764104 3.818653818546779 0.1268109762665609
1.0756384947229467 2.981759484515182 1.2512001553189454
0.42139020142856254 1.735150982340971 1.5952837672777829
-0.6467085893062451 4.77662147915303 1.5179815547356055
1.2623950414783673 2.43972627185977 1.062477651177111
-0.2892588627002362 0.33046972545128117 1.624447386143782
1.5173966111177513 2.007445196729232 0.6480798751453124
1.2814704926140705 2.672200144310106 1.0393908680373574
0.6186217169260944 4.933574830396086 1.5296428247625034
-0.2098505719385189 3.1132339395623023 1.636600970749155
1.6475799715605595 2.357003324708144 0.08933217400525953
0.8026846126390933 3.5470860429841435 1.4415954400012607
0.853474232497378 3.803641501523936 1.4121195892922849
0.5342561482295605 3.0542982869728745 1.5611119012034063
1.6465561903125012 5.395054183222374 0.10654910672353025
0.990498198988028 4.279467876263941 1.3196262038173812
0.9077168403028066 2.7483365059531226 1.3778788545553229
-0.49799526839501473 1.6694690087223494 1.573054580316963
1.5108921194204348 4.915674045348177 0.6631025587895331
-0.453089459606044 5.114405131413237 1.5865717574676232
1.561138267395696 1.490249092176675 0.5341790992474008
1.3272048681465578 0.49872145112791416 0.9803199671373006
0.691590036558274 0.3405938407363572 1.4980664942963395
1.318231831245888 5.266615855969558 0.9923531826371659
1.0579914407607913 2.354382850692903 1.266157222179341
1.276043003258026 5.5155484784623505 1.0460469654065425
0.6706383037035839 2.0076477450929917 1.5075623587784286
1.634375757846534 2.973631689308912 0.22653009107747055
-0.12486146621400157 3.434217744621419 1.6452688577417642
0.2320203593790757 4.352132331143476 1.6336053846733012
1.6499800313420652 4.103960291120904 0.008117645744740717
1.4331340891199487 2.0678826344091945 0.8176959597566414
-0.6772681162720866 5.325425312204974 1.504595593068536
0.007611304971030797 1.4156655748584146 1.6499824447661975
-0.3277683691382215 4.976570162896466 1.617117155988542
-0.6425125219021319 2.6840719864565927 1.5197623693192834
-0.7262347209465684 5.678210109627165 1.4815812937843333
1.127738871063254 4.257657751003257 1.2044521736843588
-0.209232510219459 5.286878087418397 1.6366801021174735
1.5830507088122487 3.9978861729019277 0.46524235977502776
0.2735237116366556 0.6238347796310969 1.627170789798203
1.018270897289916 0.11598633955299145 1.2983159783859972
0.8340507465920017 3.1827387603402393 1.4236781069150863
-0.4172498515481635 4.106695803630645 1.5963716864762527
1.5480183610605538 0.4718653229643529 0.5710859425860495
-0.37035748260344303 4.815360351164084 1.6078977999486286
-0.20514908123314476 5.52875991611887 1.6371969504214197
-0.22424994989450753 4.618193042206282 1.6346901724707072
-0.5484973454005897 2.81783656319346 1.5561653710607062
-0.7417269028558616 1.9008540467805655 1.4738864276394743
0.3701824790356158 3.3838318234821694 1.6079380996217005
1.3492512589487402 1.3310182779623037 0.949747882453675
1.619742309828651 3.758914716341676 0.31453910687058645
-0.6640253153401955 4.105306614231222 1.5104868025200862
1.2254615782835057 4.718496634419808 1.1048728072275555
0.16045114847571385 3.2236784700956576 1.642180084202955
1.6375762581832938 2.0410640510619906 0.20209898226958564
1.4965783436467601 4.350272110021117 0.6948044770491336
-0.6567039517783472 4.626201014532611 1.513684220608348
0.991507716346698 3.831304058793227 1.3188678661734676
0.5054738816620521 0.11607284307435566 1.570667423408755
0.20301508436394936 2.0289283674046987 1.6374629386708874
1.5759579655335791 3.828975577739116 0.48872946593310906
0.21461414868642792 0.29104617231439145 1.6359831194678018
1.240406363729841 5.16939625620933 1.088068036851792
1.5690231158536225 2.6013558877072676 0.5105550527778463
1.216385130402444 0.2290373565768908 1.1148574861998413
1.6280079122781572 2.784005855471073 0.2684962524127959
1.6484122750963375 5.138988968133021 0.0723669213917249
1.5188037191121946 4.866869747894705 0.644775358408621
1.5806515546176938 2.037630322448714 0.47332933871107913
1.6485913173997042 2.1051711181040296 0.0681664741226012
1.1298404969647482 4.099084293533278 1.202480956779961
-0.5851026144553846 5.127790435264233 1.542775074519119
-0.2761490912641208 4.636481266459917 1.6267272910337491
1.5065957607292506 0.4891030540411566 0.6728069661891515
1.6014969974760203 0.2900761605647279 0.3971238686799016
0.9764883651654699 4.190018181226787 1.3300264932310437
-0.1848598799029912 5.642669747776579 1.6396117908829064
0.5213088016465531 2.5505042775555675 1.5654830351446911
1.3469783840221183 3.2199974407923175 0.9529686421793544
0.10592168905813204 2.894696742387216 1.646596670647391
0.40180120898950156 1.6813028669228698 1.600329899881451
1.4942991961568102 2.5572002918086643 0.6996927271060565
-0.3565587636271931 3.822085117817974 1.6110139192696777
1.3630097927141216 0.030895082924493868 0.9298947816637142
1.5871042067645424 4.421629151470612 0.4512208293843409
0.016145875478256907 0.047708066290702025 1.6499210013528043
1.6202634788045525 0.9943099926321218 0.3118433248478619
1.016094548256002 2.2708195040919366 1.3000199494640192
1.3955239746094057 4.011952036176392 0.8803481335757841
-0.16853478935630098 2.9498279506156893 1.6413701668961291
1.1106898345539404 4.224698052433436 1.2201918256645305
0.8231342069073326 3.456930311901211 1.430017509479879
-0.10984260248402813 4.103039988381583 1.6463397591868867
0.8846918348742526 5.050654009327538 1.3927743382568578
-0.09465535454075481 4.748892180621971 1.6472827212888392
1.3852644319896 0.3068517675276105 0.8964052953126342
1.649868594654276 5.252802116567067 0.020823553335687035
1.6106745649866743 1.826961872556683 0.35808860035609524
0.7146365462478355 4.660268018165483 1.4872103438205926
1.3046001114927936 0.5829951799046846 1.0102071812717381
1.5419257936344584 1.1499310090630583 0.5873370811763421
1.5818756243171044 5.099940544761069 0.4692222385942197
0.9434063116313344 3.8745409139075853 1.3536929235148425
-0.1264465300638085 0.7616717084979512 1.6451477973224236
-0.3252370752114359 0.46476387106697115 1.6176281540910167
1.5954944563568154 0.5056897370495625 0.4205917732608063
0.7951453048687074 0.39581506092315544 1.4457675968651567
0.5356401313752766 0.25317513606976805 1.560637577934184
1.4907669895277718 0.3993425983526888 0.7071872332941989
-0.1890321566698636 1.4487239446687925 1.639136005261534
1.2864472406667073 0.9632630772691559 1.0332248046678971
1.6443924188216699 5.004010221500821 0.13591752249734876
-0.49871849491275416 1.705946326775234 1.5728254394025922
1.5304710832990338 0.011908843036730999 0.6165697553282046
1.649430388709498 2.089666465327689 0.04335196421886304
0.7676295968826286 1.6464709306050715 1.4605631797323293
1.034653076118296 3.7025749013718503 1.2852988026443297
0.9147607694980883 0.3631308543573545 1.3732125598709273
-0.7032111254797531 3.0779470946905216 1.492646680564928
1.3251754583140642 1.8337934738292447 0.9830615467416621
1.4876583110549517 2.3771687628317126 0.7137035445821525
1.3706734278819874 3.1526089128060186 0.9185610236115191
0.9931503153770374 1.0131258066399313 1.3176313790535237
-0.46440274391786845 0.18361439619365164 1.5832972214469254
-0.10592566503441372 0.011583655076766276 1.6465964148773726
-0.6582787104396286 3.338136954234987 1.5130000460614466
-0.6177109927145158 2.397925576835006 1.5300108265890302
1.5552666875800596 4.944127565453217 0.5510404073239541
1.5887003418783123 4.8802268777253195 0.4455684276469032
-0.02643796038995256 2.7644051903063827 1.6497881786006405
-0.611370225368614 2.683491077818879 1.5325555283684602
-0.16520588174929446 0.4036088336035032 1.6417085662916662
1.1670234893052691 3.9509333446359216 1.16642881283418
1.333166556309764 3.5095353197219517 0.9721969621106437
1.461739468431788 0.03574553850543444 0.7653873048520949
1.3982183325032083 2.3292896398775116 0.8760624947182408
0.6426146063150551 3.188814110615374 1.5197192068768977
1.4255828027678785 2.152077173246467 0.8307909920385994
0.2490922769714273 3.601722613795238 1.6310895246899202
1.3107835505018033 2.6875801721082224 1.0021708854950269
-0.5077021341811572 3.5384893531425146 1.5699485797146024
0.19758858961538142 0.6082236040158862 1.638126597444106
0.7795815295253163 2.829682471834859 1.4542189102136474
1.3618569008063637 2.4158280675775363 0.9315824073725769
0.5072431813093835 5.4718117146235015 1.5700969253568824
0.8646213656332458 1.5771113117118436 1.4053219894709188
0.26914061938338746 1.510302088551684 1.6279015102265635
1.251295220552338 0.025096300064669785 1.0755279034143537
1.4270988675094693 4.467886600299575 0.8281840510135354
0.7384464950533988 1.2636824272011409 1.4755327085304988
1.587182463678542 1.090678151954044 0.45094548117406985
0.8003471359051539 1.687053748046292 1.4428944736356906
1.4809268836639946 2.7547395349940396 0.7275682546959078
0.13687805862474506 4.047175993190035 1.6443127430836024
-0.6995387567342308 4.680147534424687 1.4943712817859978
1.4881444051145272 2.440912089093751 0.7126894341340619
-0.06945226998384744 1.0693633426719302 1.6485376496137694
1.5406352955998803 3.7460246779037143 0.5907138782455252
1.108699332308816 2.633859813088829 1.2220007326257973
0.5280053531420983 0.006095599359010085 1.5632371371782618
1.5738915729782599 1.0703078000259125 0.4953436347708719
0.551494828946057 5.046686377456438 1.5551056085185209
1.5771599231738211 1.4345031980650826 0.484836649537085
0.8204389749739356 2.983526464632151 1.4315655375649827
1.6498059436290637 1.7613391163380763 0.025305105536506597
0.9349528580224775 3.984231466274106 1.359545200894623
0.5448912819710389 5.635020040795745 1.5574316970037425
-0.44382321189795915 3.6715151344710306 1.5891887731105385
-0.04632526616042935 3.2322134048782507 1.649349559588617
-0.6914111246389715 4.7657414159503535 1.4981490769364285
-0.19936416976805124 3.6708828486224383 1.637911452982943
1.5406501976772946 0.6129958289650073 0.590675010811286
1.5507161377737373 5.504861012076096 0.563719309628562
0.11404729604184433 4.757036675968748 1.6460538309136623
1.477242362153595 1.288531615045248 0.7350204102328495
-0.07002070980450206 5.255766093960826 1.648513603279777
1.633905754130389 4.780229638389328 0.22989559939155962
-0.46843190990720396 1.7827972700646286 1.5821098399860514
1.6371543014606118 3.197631231052933 0.20548915594020173
1.5387389142651084 5.169419801279567 0.595636259579817
-0.708802378631477 1.0139188921576476 1.4899997275323107
1.6210658071090907 3.2073683287398254 0.3076453299202701
0.9612711881869592 1.0167438235689397 1.3410658830801832
1.4288178511567833 5.244668938691122 0.8252148497304882
-0.03885787628439274 0.8974513970757664 1.649542380616717
0.3479823045148944 2.4336124472125285 1.612888190713945
1.3707660928788983 0.37652195205913547 0.9184227341554212
1.3456055996649505 2.5642798275386736 0.9549060530493714
-0.6555117940837231 3.31827292595658 1.5142008743284818
1.5866868564418155 4.076607863267005 0.4526862264248708
0.7710704542232882 0.36605094219345724 1.4587495859892785
0.22530492540388922 3.961182843762262 1.6345451020356543
1.62586388424613 4.014730380884151 0.2811878907493822
0.264019399638718 5.443824387881447 1.6287399290907099
0.48030534071921166 5.435811729068125 1.578545780038261
-0.6969312815118839 2.049241847668627 1.4955891109693875
1.531857507203985 0.7672990373724067 0.6131170994376133
-0.250846671179115 4.991305759017653 1.6308206362314515
1.1083947126674552 2.2073647261471314 1.2222770393535294
1.6447484536963004 2.4901868298514973 0.13153905907991095
0.9803300146195458 2.127937786589514 1.327197446665733
1.5517931140540269 2.574857459399002 0.5607478320729429
0.4501024576803541 5.16947744406185 1.5874217390441976
0.8255245035501227 1.041098598823086 1.4286389656026897
0.8924304272183845 3.555221245709941 1.3878284953749909
-0.0005475292580106602 5.468187320854547 1.6499999091550615
0.8376740396353126 4.4737432186322454 1.4215492264853358
1.2684694807077632 0.08288269901566324 1.0552180705962997
0.7099632299655079 2.8638663480667095 1.4894469483996209
1.09234140633967 2.892752477563404 1.2366447557790685
0.5291034972842367 1.7571126638914107 1.5628657937140955
-0.614352856371232 0.5295250862532085 1.5313623241638499
1.638686854856241 3.3716927027594714 0.19288699209993596
0.8636863334469147 0.5178397784881246 1.4058968374020282
-0.7253341575396633 1.6141512036369643 1.4820223884632198
1.444489637373903 4.922939980327106 0.7974645368412382
1.6258158133443643 1.2419753571631447 0.28146570142630767
1.499259504489564 2.0117415491453516 0.688999955150729
-0.5550279305686201 1.1834852718330042 1.5538481252325513
1.2368505929708296 1.4545408840308427 1.0921083328441858
0.5855595980772199 2.8656915766361895 1.5426016845250898
1.5187177158639527 1.5188180771422293 0.6449779062270101
0.23804022935465632 4.628083492099472 1.632739063417294
1.4955149789056321 1.1923356466819566 0.6970903441225437
-0.7081967242299348 1.117015672370864 1.4902876902766087
1.1013998033476498 2.4171847890690694 1.2285839300535222
1.024032447468449 1.5023256492024912 1.293776466987933
1.6466576233971024 1.0660615208828808 0.10496985904633054
1.2661550107163695 4.382568414388706 1.0579940873359504
0.3569710689922995 3.3770339741601805 1.6109226101531056
-0.656151317010397 1.013467808723295 1.5139238584504577
-0.17903546530684417 2.8220516178158768 1.6402579986582482
1.4468292665813205 5.648177553917143 0.793211871673488
0.17489275703122573 1.5829490152208137 1.6407048861809415
0.5790423792704663 5.502258954397946 1.5450598444748982
-0.7298223572117726 1.1840710887989319 1.4798173289003786
1.1114919125862102 2.2265191058130593 1.2194612450813878
1.4953231581269806 4.808587770797938 0.6975017224130364
-0.33869540962662736 4.279620718211172 1.6148639012306425
1.3280832265420641 5.64903400129503 0.9791296867001942
1.6472044801807837 3.3473033154839418 0.09600729384976017
0.9617068581629554 1.8545146012405298 1.340753489259803
-0.14872874776778386 4.093470073743278 1.6432832256149354
-0.4909884715945461 5.265577546767222 1.5752556366384636
1.3450804292964456 4.544678437515028 0.9556456658844269
1.6481619227256536 3.326625546698169 0.07786062212233005
-0.7867919455491565 2.9037403549806737 1.4503304569714355
0.8380193918024226 2.8641635893122412 1.421345664841279
1.2014698709552996 1.833827268043569 1.1309156242561402
1.570460474285522 0.10033002959891922 0.5061164872901229
1.4306252847727654 0.5911648735885132 0.8220774261399252
1.5636866886476921 4.3048137450665624 0.5266725166040234
1.5591852589573796 1.6365042418655156 0.5398530617214363
0.7171652246191564 0.9811824075063831 1.4859926112188293
0.1107451526478759 3.830355065730753 1.646279293183571
0.431935738296921 3.859435616875063 1.5924608371893776
0.9968555373028918 5.040447497919088 1.3148304216698679
1.3814933602209218 3.555977103111243 0.9022062378777403
1.6368296641492517 1.9499358567499507 0.20805924771816256
-0.17275479692669068 4.9624057579271765 1.6409313758164348
-0.051870065204153146 4.249098100975645 1.649184494329157
0.8141865307895796 0.40931767334818414 1.435130758182274
-0.512089622684991 4.096830657493493 1.5685229416040887
1.6319520250189299 4.798203356904247 0.24337746000115573
-0.6752072371156944 3.0030178404688805 1.5055215664169643
1.6458307696917034 5.494400990050321 0.11722234230732154
1.299195014643587 5.08244965883687 1.0171491109592778
-0.8034641495129866 3.974580757131378 1.4411611153675266
-0.6452034259054723 2.326110687677357 1.518621921084982
0.20282985768025943 2.394394664727257 1.6374858927127909
-0.7162075959180139 5.123420819643687 1.4864543987453294
1.3136834583506996 0.6443735020939192 0.998366551550955
1.6242998474324222 0.8384253605579405 0.29008620379295796
1.6440953795582418 2.094069147463146 0.13946462962070402
1.3379300550513749 3.465075430599874 0.9656309687402455
0.47791886877909945 5.183903468747097 1.5792699436337367
1.3677306397904212 5.202107408336382 0.9229371034791509
1.6464650946717845 0.5824212196006223 0.10794763558055172
-0.7599704334812507 5.0225169605039754 1.4645630543729824
1.634163396747409 4.896122977429208 0.2280569944793847
1.632840705452623 2.7327729909800897 0.23734201190893217
0.870370357734879 5.038987902769247 1.4017686829061557
0.04145772602959861 3.5875445572518148 1.6494790865459479
0.5347253398827125 3.435985429545921 1.56095125192535
-0.3592965686975939 5.694376906444803 1.6104055314491859
1.6459647018611596 0.9650200208039889 0.11532649403802898
0.10868062624595193 4.989013727058472 1.6464168735404736
-0.3184679224861191 5.4270999914771485 1.6189744230059273
-0.502991602357546 4.381695455580242 1.571464109662638
1.5162726896845764 0.851106008446185 0.6507051025746609
0.26293351619604866 2.4214399118241854 1.6289155797833055
-0.678099823362051 1.8560273834509435 1.5042209377469637
1.1523251705454396 5.466069868834523 1.1809516083766611
1.5894462431185306 1.1407806690568123 0.44290025991907994
1.6383051156132051 4.646402037284669 0.19610290195609506
1.4616130651908552 1.772192973055812 0.7656286617306018
1.272981537887286 1.5087658625655442 1.049770453098257
-0.5581332327091552 4.861137952529465 1.5527354232275465
0.33514900362653016 3.895090980531261 1.615603647361612
0.14184923419731288 0.19977070199371164 1.6438913573462317
1.2414858038177556 2.4039921153282777 1.0868362337164605
0.02342159234887182 3.667182514328554 1.649833757992557
1.615352974167467 2.9810827066549077 0.33635512311888205
0.11993135967287308 5.7 0.5150302647043693
-0.024051369891700248 5.7 1.003649206724949
-0.2658174242348449 5.7 0.8361443200328653
1.5468716788653047 5.7 0.33468650067810746
1.5998188284266655 5.7 0.16387974446289041
0.4198432304245416 5.7 0.06518685276797377
-0.23277620265080629 5.7 1.0408167381779925
-0.04212814140102684 5.7 0.895532260469028
-0.2268255216242263 5.7 1.4443114825562653
1.5830070334512825 5.7 0.36900083256074234
1.1117458277792145 5.7 1.1738444787861007
-0.013017573728739676 5.7 0.5498369800181179
-0.1475815403561083 5.7 1.0230701382520866
-0.2947882151144857 5.7 1.6134449683164387
-0.22602591925544543 5.7 0.9546878652983714
1.4576686450874714 5.7 0.47479856421494204
-0.5658013688369505 5.7 1.054387598193101
0.5755562585069867 5.7 0.8500641886771593
0.006027013791252008 5.7 1.472357310832606
1.2685007899299232 5.7 0.9963877659810456
0.012253532252817055 5.7 0.9818898744401907
0.13453013921139736 5.7 0.46186310636422884
0.36713041872126234 5.7 1.0133776656161233
-0.31961551134994526 5.7 0.7238606141480622
-0.04180648937426165 5.7 1.4020335329035556
0.38056661475834247 5.7 0.5388273889800613
-0.10936847313105066 5.7 0.5784010066692958
-0.5520058623570556 5.7 1.4794488160182246
0.6603735986046068 5.7 1.1540303843180595
0.400745947928059 5.7 1.2629228439829612
-0.2744766575002935 5.7 0.8706497857522864
0.6624535048695336 5.7 0.35803481788357605
0.03594074892024415 5.7 1.1658785543986385
0.7665888361611982 5.7 0.3493188128898211
1.5081854804537849 5.7 0.39040905586088487
1.435606297505337 5.7 0.5155260338938429
-0.48037724371457413 5.7 1.4433465018790417
1.1204192224948046 5.7 1.0804879835517802
1.4477072755289115 5.7 0.6692790388528911
0.11126252109977222 5.7 0.0764720682212078
1.6314703325340063 5.7 0.02472123855080948
0.9652753412572299 5.7 1.1936166366050789
0.5976124004900303 5.7 0.9721306579516448
-0.2648064198571921 5.7 0.5491626657002765
0.8641844152220219 5.7 0.7133482496811981
1.1685577488976788 5.7 0.9794050808797768
0.29163071430829096 5.7 1.342296137252117
-0.10643301997641139 5.7 0.44231243020311606
0.2117368292739364 5.7 1.5774503234470707
-0.5650992450453552 5.7 1.3981422378338972
-0.4463503930834744 5.7 0.859644038919515
-0.01057602995202204 5.7 1.4191800035565028
0.23555167053866052 5.7 0.31949831044706695
0.6992645521772026 5.7 1.4835841677309476
1.3496911781374303 5.7 0.09239825089484262
-0.39566548585657363 5.7 1.0330974144479041
0.10275868395609501 5.7 1.0981025388375192
0.7360233004693844 5.7 0.09431696786149983
0.6040304374686327 5.7 1.3045977521786882
0.8165151312825616 5.7 0.053823765500217696
-0.19818969352893598 5.7 1.4358680977791567
0.5352948055671909 5.7 0.00911138330581574
0.9088314239987483 5.7 0.9950808717844327
1.540796450945252 5.7 0.29672280720231625
0.23139834894418876 5.7 0.29662392258722947
1.2182962316449562 5.7 0.24796124928970278
-0.31497682484123135 5.7 1.2515322092827474
1.1935255158803384 5.7 0.2261008892384742
-0.1098053547783115 5.7 0.26849711270759413
-0.060573148169154635 5.7 1.0341652543846227
-0.09392082009073019 5.7 0.615275434135315
0.8827481316095942 5.7 0.9190802867835374
0.1777897816155457 5.7 0.04637719682960413
0.6219769566894578 5.7 0.9010024252533344
0.08463301147109657 5.7 0.013546761520833953
0.8440184681211671 5.7 0.9585870913280513
1.1792632022857412 5.7 0.2328465154124443
0.294101155205158 5.7 0.9030734765774779
-0.14875311386438322 5.7 1.3147784228034427
0.39675678260434577 5.7 0.9411599423858068
-0.09437110008167733 5.7 0.7956164486767974
-0.7656210015487773 5.7 1.3684001671581763
1.056742075387523 5.7 0.8774552809968703
0.9525609635644546 5.7 1.1466093005391116
1.0692700448571681 5.7 1.1763053358307531
-0.3214412101409667 5.7 1.0252681900333398
1.2625490293927866 5.7 0.13750714757161778
-0.12683189181424803 5.7 0.30226200460913855
0.3629210222421547 5.7 1.4084222375777602
1.4848194452680288 5.7 0.371198409076782
-0.09790562983944774 5.7 0.2637260294569104
0.21420823134327782 5.7 0.47298298532174904
0.5451921325589731 5.7 1.4832794439894978
1.6239914169954341 5.7 0.2891083359679582
0.26477089412391536 5.7 0.611625193703688
-0.34136050782164046 5.7 1.3871342193486527
0.6099839835409482 5.7 1.506795226356714
0.46600554291363555 5.7 1.1340085226950654
0.8654117549924532 5.7 0.8051304008623008
-0.6957678448686356 5.7 1.34956645874612
0.36289137031526086 5.7 0.16411600079138308
-0.06630429902469502 5.7 1.1101744950860213
1.1413404764482586 5.7 0.2258399930821714
0.3929455171640021 5.7 0.14936840262098003
0.7012104283338532 5.7 1.3248058526762512
0.6634463505311943 5.7 1.0712835446045488
0.7753308998344387 5.7 1.1106280304173344
0.2529172213886279 5.7 0.9140335944859036
0.6553605296277413 5.7 1.2129088557958545
0.7766728463947067 5.7 0.3685053020992204
-0.19149761567178528 5.7 1.5712439912636786
0.7577484204565362 5.7 0.09026321901607151
0.48724383741485466 5.7 0.8816742055435919
0.8289626648414274 5.7 0.8849367040123656
1.2288647921763578 5.7 0.8791898535876894
0.09763373965661414 5.7 0.4256043316411628
-0.4478807337511562 5.7 0.9061346089277809
0.3130102445631877 5.7 1.154809650937183
1.0228016239573634 5.7 0.9469270198656395
0.17069324246253578 5.7 0.7661642662214386
0.28798326363897697 5.7 0.29081486572545034
0.8342541727603099 5.7 0.44766108405707883
0.4175276862084459 5.7 0.6146333699420149
-0.1558884262704689 5.7 1.5815787609045744
0.6214211245886458 5.7 0.3576611787883772
0.92804846002146 5.7 0.4639049536590596
-0.3639894238771768 5.7 1.0969233293178102
0.4104034744670642 5.7 0.15916688870506895
0.5725268268247874 5.7 0.9424226218684386
0.8153000871831507 5.7 0.896596930363103
0.329533262903173 5.7 0.19416777762426715
0.33669301557579684 5.7 1.2185051719283926
0.23536487068457965 5.7 0.9728144396440482
0.3148819811052927 5.7 0.048726764833679936
0.6257300971398817 5.7 0.33514440868313217
-0.056516212764054004 5.7 0.9904195180818803
1.0819972992708344 5.7 0.14279081523244677
-0.3391918573737955 5.7 1.0379012374834593
1.23378200063032 5.7 0.9474153397506789
0.4736202010416074 5.7 0.41815155217948324
0.5419937218076379 5.7 0.47302284669772915
1.0011178811882326 5.7 0.9527767755492144
1.0067628124640162 5.7 1.0523458512639465
0.321409392456989 5.7 1.2526037714788227
0.9091780366778579 5.7 0.3420584222089603
0.817500385869987 5.7 1.129058177355092
1.4577719116505041 5.7 0.27720727548762136
-0.027534192882561873 5.7 1.192730803843815
-0.10152755041333468 5.7 1.1430636471377746
0.8090426117940934 5.7 1.2871669229110168
0.874514906092078 5.7 0.8565435054787881
-0.14753473723983393 5.7 1.0547710897656828
1.2072186454762492 5.7 0.07775947450476269
0.6398489615544295 5.7 0.6158003907430469
1.0225852935252822 5.7 0.17301676074348724
0.4369198966099621 5.7 1.1689198076864753
1.2120797676333974 5.7 0.5246667677558706
1.230131517014581 5.7 0.2696936789565213
1.003433556445857 5.7 0.18729722718628727
0.14489778923933216 5.7 0.16780355912692915
1.0356349004473853 5.7 0.9110660239008037
0.5919155285615801 5.7 1.4761192989381837
0.6776291296703022 5.7 0.536515675617613
1.2559872183128211 5.7 0.6372184799344446
0.9566790438728542 5.7 0.9077040974322823
0.16530118824433718 5.7 0.08538033301884015
-0.33692248018839216 5.7 1.0393335093694975
0.8888999500335696 5.7 0.44880437155140385
0.10439562062996154 5.7 0.3010459645908472
0.9911231370791711 5.7 1.1838536529103705
1.3204916948169876 5.7 0.38154692379706606
0.5578291631349112 5.7 1.300104650385851
1.2009846264369095 5.7 0.150814592918631
1.0335739516378737 5.7 0.303612221262424
-0.013593631807627267 5.7 1.3117273140589962
0.27687863021675196 5.7 1.5237706297460563
1.5415113026365614 5.7 0.02114838595238307
0.15849371037561785 5.7 0.49719980587533363
1.326645447916004 5.7 0.16341649401717528
0.9139406882449986 5.7 0.0817358138391524
0.9102763572636523 5.7 0.46486887320104364
0.308906279729626 5.7 0.17283631817310055
1.449063105681221 5.7 0.1051227522057083
0.37424374162679197 5.7 0.6200452160157194
0.7687956631882098 5.7 0.016218827513250312
0.7522915014291456 5.7 1.0483260202038356
0.6172755388112834 5.7 1.172072874794937
0.05491750042912567 5.7 0.059330631914144394
0.3338137382755628 5.7 0.0005380751971490427
-0.6365973052914822 5.7 1.188375887054305
-0.18028237128521932 5.7 1.3045741655341818
1.1264855299830632 5.7 0.28418246551741766
0.32056321161475976 5.7 1.1864836275886073
1.3261720543885052 5.7 0.9540440688022945
1.0096742812477446 5.7 0.6010248569599241
0.09482215439516116 5.7 0.22740748426058158
0.7459275413780748 5.7 0.5010448870508099
1.0311059258390711 5.7 1.246496902957495
0.8070011421369222 5.7 1.3395892662633273
1.0616394421696604 5.7 0.6806610301520999
0.9069353561273941 5.7 0.10130996020812691
1.07679328793817 5.7 0.2726079814551251
0.32898495968936053 5.7 0.5515894934876799
0.4322104221185362 5.7 1.1523080640406103
0.5766587193954453 5.7 0.07215344214675093
0.36423698147477707 5.7 0.5870819649987232
1.3838099869447538 5.7 0.12624202821314678
-0.35279057706209466 5.7 0.6847193502676231
0.8011969819425803 5.7 1.0135047540131916
-0.043110559861400104 5.7 0.666004153826644
0.8111367146256101 5.7 1.1378531675991839
-0.5177802405812411 5.7 1.0628971490932728
0.37221746370993813 5.7 0.7424250261786791
1.3329582763359489 5.7 0.246881310520516
0.11066979671455539 5.7 1.2171115898041915
0.33986369109675674 5.7 0.11940337269651044
1.3829384686305395 5.7 0.0736962284846599
-0.0506367306365914 5.7 0.14845303891597492
0.8933973645480595 5.7 1.3201009576393652
0.149237344869444 5.7 0.8495951140969794
1.2705507077293416 5.7 0.3162497330440768
0.9988753809453891 5.7 1.2468641667772804
1.3460450045340975 5.7 0.6746623124443175
-0.20602755595338443 5.7 0.8062484292198262
0.7270955371720732 5.7 0.6314086907941817
0.1861879573449969 5.7 1.2746895466563415
-0.14694967400016376 5.7 0.9364283818627602
1.3037406553212185 5.7 0.9516563344191851
0.7270941044240369 5.7 0.2563934008753532
-0.031033424383535492 5.7 0.5016348362484958
1.2501075288330976 5.7 0.5588100688855021
0.6812705889425936 5.7 0.8530697301635967
1.3601630262118003 5.7 0.37066645862821895
-0.2092727682226761 5.7 1.3790550348508945
1.497494129660066 5.7 0.2958059226528923
1.479937354357293 5.7 0.6139921499349502
0.4964146778353114 5.7 0.720394206446624
0.40807847341427855 5.7 0.7664637455675654
0.02979327636966704 5.7 0.5622523435034912
-0.36376480796882266 5.7 1.3107087524281782
1.2021087537966229 5.7 0.9215260519116696
0.4306187880435094 5.7 0.7669463351553837
1.1476248155375839 5.7 1.007527905895093
0.5886306738751217 5.7 1.408288468298992
-0.07549170861731984 5.7 0.5273332603040876
0.6830174280996184 5.7 0.20863524221016103
0.5573788011965082 5.7 1.0116902495630502
-0.2610163360230514 5.7 0.8012891672038686
-0.25610016634872396 5.7 1.0953832224902464
1.1621719082961306 5.7 0.8026071051495016
-0.09188527825604907 5.7 1.4845674464444611
-0.4845040486360712 5.7 1.3422054363535312
0.1277537944648212 5.7 0.3367823994484296
0.7939427550808975 5.7 0.13222264846007115
0.5255511558010113 5.7 1.3799367224043992
-0.26023564700898355 5.7 0.9307796850509996
0.575401561777479 5.7 0.1071255721239272
-0.014771128704864824 5.7 1.3707794675869556
0.31684252036351773 5.7 1.5413920787348756
0.8527965426058729 5.7 0.6133726476320559
1.4586261968253305 5.7 0.24921377789784036
0.4667959615290966 5.7 1.202798731167227
0.16625429410952766 5.7 1.616127129736685
-0.7395519298935622 5.7 1.4727506951063563
0.17156496854088032 5.7 1.4544044217225638
1.5430209521547757 5.7 0.3205723091543479
-0.40224347152776885 5.7 1.190732747673585
1.2341335600767447 5.7 0.22238262582455742
-0.052608147555759946 5.7 0.5882498424270656
0.4529151387934754 5.7 0.61703252101821
-0.20981910792437097 5.7 0.42582843878441123
1.3444257097478982 5.7 0.6853281174896225
1.5363954550633812 5.7 0.27701105441829843
0.7856718487542674 5.7 0.17437829741184954
0.8592304079101898 5.7 0.14444320811918296
1.0856011767419071 5.7 0.6181150385543196
0.6844392031925711 5.7 0.8647436176542064
0.20933300404723618 5.7 1.1845087925757487
1.4967097218903147 5.7 0.22655188628932896
-0.6180260476303989 5.7 1.125970111058509
0.5934064939839722 5.7 1.3905224556680926
0.6132777279404218 5.7 1.3834028063075305
1.3172159606710008 5.7 0.24755551242915153
1.281184913289422 5.7 0.2917376855117097
-0.42018223191869825 5.7 1.3406289212318532
0.3364231102931397 5.7 1.4978891737741444
-0.035143566227887224 5.7 0.10136544834142827
1.6083850107593396 5.7 0.08448670115410735
-0.5137254621587499 5.7 1.0149865719756064
0.9879777280549372 5.7 0.8902651493325203
0.9332592509518541 5.7 0.39293096161010665
0.3529813545041186 5.7 1.0401362667611838
1.4616721062801405 5.7 0.4752756910651985
0.7693303402790628 5.7 1.3492166398804037
0.41820846875254186 5.7 0.5262376388129109
1.2581489686235712 5.7 0.447768009598982
1.1171017424920144 5.7 0.6950928840560615
1.4792819643404447 5.7 0.2751613254172006
1.534127494553406 5.7 0.34762966916429994
1.0498656256293741 5.7 0.11025797026067383
0.15565824101960898 5.7 0.5810785470635128
1.0027706131821492 5.7 0.7816316653767884
0.553740966931182 5.7 0.015893609179684912
0.7179909431342759 5.7 0.8772839408286667
-0.020123265911878914 5.7 1.2341509415571623
0.540142173798427 5.7 0.2725329273004945
0.9969152910185237 5.7 1.132009800785011
0.05707320688552048 5.7 0.4805799219864591
0.13908169770621073 5.7 0.926227301082943
0.01371539534495971 5.7 0.24873629740611963
0.35926086861217726 5.7 1.1617324688928432
0.3438748933291614 5.7 1.2320575239293576
1.3293854147876676 5.7 0.3777114108681543
1.034905085587654 5.7 0.033651462694595825
0.8387824526091128 5.7 1.1164265132009608
-0.31042120811335067 5.7 0.7463446384817095
0.09652073148171104 5.7 0.3517568264479858
-0.1153762904470616 5.7 0.9387029774166139
0.5066941684440087 5.7 0.9039074581679429
-0.6948205216978846 0.0 1.4290089066589147
1.3435765234510304 0.0 0.5418580211188515
-0.07352078294669913 0.0 0.35597526596381146
0.17031066306029058 0.0 0.4822642343397052
1.3429732246551414 0.0 0.06945798147627852
-0.525344086376007 0.0 1.0896193776390846
-0.5657612670920016 0.0 1.1928852197665734
-0.35527137132629427 0.0 1.385562917582967
-0.45986919736707155 0.0 1.081531510780843
0.023225588988952443 0.0 0.25428152329555986
0.41917896274342265 0.0 0.5637009587844344
-0.4313713841568825 0.0 1.3247655875879194
1.0595810776691639 0.0 1.244699231893994
-0.050045534556144355 0.0 1.1651841944173182
1.3252750549138663 0.0 0.19517818149020316
0.48416795112797434 0.0 1.307289563796274
0.31813420503545065 0.0 0.900053527264123
0.9766849336670821 0.0 1.0566240079555351
0.9911871326021319 0.0 0.10209017103474816
-0.0056041322187457 0.0 0.07990987055485632
-0.10221412373773034 0.0 0.7648460958251524
1.203884001630432 0.0 1.0044083374912232
0.20870753787217494 0.0 0.5881387631099542
1.020417505396241 0.0 0.849605727632912
0.20187388617170843 0.0 1.2489073180552424
0.44486290571210524 0.0 0.9298260801134229
-0.29760662035002206 0.0 1.2612649024883194
0.48151163197946933 0.0 1.464887176606402
1.5477359182816453 0.0 0.43809634059217367
0.5202135277879008 0.0 1.5163614842058377
-0.13319206215822496 0.0 1.3953258735336767
0.27857128311952384 0.0 0.3073992522309112
0.03756189967419232 0.0 0.9479119471863935
0.3730388925650996 0.0 0.11889519568688471
0.05904744117442771 0.0 1.0367667592730045
0.17662583590986333 0.0 1.3240195933423449
0.38231287906716543 0.0 0.2722372648963219
1.372169170329145 0.0 0.34538173335944483
1.3241794294518803 0.0 0.33533371431113934
1.185379148758514 0.0 0.1324777264086555
1.1173214121521249 0.0 0.9641131572794442
-0.2477919382993372 0.0 1.1410215000965174
1.0382275293523948 0.0 0.17611337200401994
0.1300044399851367 0.0 1.0623559672996523
1.0337237105759673 0.0 0.44008719060770524
0.14418657721351225 0.0 1.2751395579633371
0.5387464765308514 0.0 1.2054160858355645
0.5749769087460586 0.0 1.0055912082114058
-0.06681974053892596 0.0 0.5785288325742486
1.0215758696284813 0.0 1.1646263079690347
0.07331185969905915 0.0 0.07818937352620553
-0.24062694677287036 0.0 0.978562719408788
0.9261686480116572 0.0 1.2985525363089827
-0.6371159862264183 0.0 1.1552127313549734
0.7380031337866939 0.0 1.0585468670533154
1.3184201449297546 0.0 0.6591665059400719
1.1990880940638258 0.0 0.3161551676459131
-0.5156447856668308 0.0 1.210824463079711
1.0202420685680633 0.0 0.9481577415926681
-0.29370194361181534 0.0 1.2880033423851482
0.9831399334048735 0.0 0.8476784377646996
0.6602839400131117 0.0 0.6563605889325649
0.058554572453177044 0.0 0.4517981945066002
0.18985932844019474 0.0 0.996044293566816
0.8489558548100887 0.0 1.0564040414665683
0.08811305232637838 0.0 0.31322421506728576
0.7142517232931584 0.0 0.031878846303624905
1.065682735857928 0.0 0.8488183756607794
0.3796863409836942 0.0 0.6792657249021582
-0.5483568452739002 0.0 1.4440875480413602
0.5249626589602464 0.0 0.2580669115941583
0.875141378673191 0.0 0.004545841119994606
-0.16262074895073078 0.0 0.8535131887575035
-0.30782696540736715 0.0 1.3386057929022759
-0.47219380470172495 0.0 0.9006504841828135
-0.1754270339046395 0.0 0.5204502071561803
-0.269761503063417 0.0 1.1609360403947904
-0.5403265129558587 0.0 1.4481654092912004
-0.22627147405574413 0.0 1.0352005401241942
0.7235464932010269 0.0 0.7857305889531795
-0.2607528496359582 0.0 0.7922043431661653
-0.3565485590108552 0.0 0.9910044806288036
0.01840975767331492 0.0 0.13394574766861594
-0.011063877693968854 0.0 0.2633417705369093
0.5036167232379921 0.0 0.9698473149406104
-0.6540802319224563 0.0 1.4258295548274778
-0.11195411754309101 0.0 1.2408442642655326
0.2880369497486565 0.0 0.7688608882226521
-0.7317173813579025 0.0 1.4673367632562835
1.214189197463474 0.0 0.08921659257449717
0.45489192003015216 0.0 0.15420686120726976
0.3579501707327249 0.0 0.7153585580027688
1.290583779163353 0.0 0.9948734916291662
