VERSION .7
FIELDS x y z
SIZE 4 4 4
TYPE F F F
COUNT 1 1 1
WIDTH 959
HEIGHT 1
VIEWPOINT 0 0 0 1 0 0 0
POINTS 959
DATA ascii
-0.24572246065438572 2.5724851166329175 1.6316005860289318
0.9393104886683027 3.2158091452870767 1.3565381697090997
1.4468091889303014 0.12382199255653006 0.7932484924831834
-0.6987256743136671 0.12340363563970183 1.494751628885184
0.15458176050366176 2.902903420483418 1.6427429742109958
1.5484599090304212 3.343095726003574 0.5698876293845125
-0.27129723749667944 0.09825751479803882 1.6275434891045677
1.647274663481337 5.019865409491226 0.09479548012667684
1.4701873360442954 2.28305188546609 0.7490321734978933
1.3399679239602804 2.5682208465117666 0.962801102386976
0.20720557043184082 0.7720160205619414 1.636937949826448
0.5416965111815488 3.567248278594104 1.5585457612061757
0.5916890246779023 3.031480702479922 1.5402610486783441
1.631271561258021 5.3464922183335535 0.2478973445416822
0.29790402239203373 1.3630867396033113 1.6228842205908118
-0.6995569242470615 1.9695009700442874 1.494362777152185
0.847920552012041 0.9822406849228326 1.4154613161353422
0.17051716322802965 0.7650030782893495 1.6411654081915892
1.06063036762289 4.3264932164791405 1.263947476470495
1.6072983296253274 5.315434588340932 0.3729505055414623
1.6199816993663994 4.533128475291194 0.31330383610475154
1.4813289051634773 2.8185323937057576 0.7267493892169251
1.2862028220167248 3.82623376730949 1.0335290516653186
1.1168625575888884 4.057986320326952 1.2145443703117669
0.030078101667324927 1.296635031588651 1.6497258280696492
0.49415933763103814 3.561518705281819 1.5742638117647416
0.7955814708785913 1.7302518439177952 1.4455276279596516
1.6257826465158736 2.8149818664410526 0.2816572141590591
0.40748146903288607 4.001275598794991 1.5988930084263928
1.561879571773182 1.1875146019890996 0.5320077097915237
1.6275666777314675 5.621946422676501 0.2711580895679734
1.6493024640727614 4.292818910953941 0.047972721452069524
1.5357342645740228 4.052595314542116 0.603340922375803
0.48190712262076757 0.7681719505040101 1.5780575164319495
-0.4885816762819727 2.632117745385775 1.576003789843634
1.632128146985811 5.544513323270987 0.2421935420622563
-0.39555909033205816 3.197612321872164 1.601884204946061
1.3730054612069407 2.0678067332178705 0.915071583809658
0.8402277630038566 5.274583761482084 1.4200413044265772
1.4911361796531444 2.1716446930007756 0.7064084468134746
0.668486594228876 5.008221960207592 1.5085177073326907
0.7708016533423032 4.994481079093703 1.4588916379240684
0.20555379232869342 0.010876980106701807 1.6371461872597974
1.639733025205376 4.971662294486316 0.1837814083383455
1.2641533632142 0.5029392926831355 1.0603849651302242
-0.17533184479509784 0.8057537723066803 1.64065802170981
1.4870308139648751 3.9538018232127254 0.7150100407119895
0.6744336051084753 4.744090708929124 1.5058682918171777
1.649982671180437 4.331391112926089 0.007562063492850012
1.6092087407106106 0.24484166509993832 0.3646192929900599
0.15329630098229513 2.6138973543504798 1.6428634283181134
0.16914161636750433 0.15116004541870778 1.6413077449438263
1.640933021186097 5.1509336948625695 0.1727391674782175
-0.7823387860764592 3.423789890431314 1.4527374242444544
0.8129558331167486 5.169759498398522 1.4358282673779108
1.538873831886697 0.42356238163054455 0.5952876023691016
1.6166093080452066 0.8716376351821247 0.330264053662517
0.9201244208980136 1.4660450732508155 1.3696244193453528
1.3396038368431178 4.362628845397132 0.9633076145838345
0.29011846115629847 2.644274371653025 1.624294086209853
0.610259425874867 1.685960742138515 1.5329981843208027
1.031910500031477 4.508718391766321 1.287501735891951
0.3559729981857257 0.5639476205513495 1.6111434525090138
1.3572876667016345 1.6454623464753193 0.9382271525700121
-0.27628483427044415 1.7105025530018665 1.6267042418190691
1.0562713705145357 1.6713109123176948 1.2675925180559184
-0.6508823531035236 3.0732035119642678 1.516196610739656
1.6420725362194966 2.425031501486779 0.16154809127213512
1.6039498182144059 5.559494598479964 0.3870981537671988
-0.47675193028520335 1.5767387641064115 1.5796226121986645
0.9190861492602062 0.42149850184124693 1.3703213675040047
1.03898993282098 4.50807942193973 1.2817955841305801
1.6454265762592675 5.2686194217044795 0.12276555762796365
0.23181726398766836 5.040292696297498 1.633634217356282
1.5885272911404344 2.3584597851195825 0.4461849900008217
1.149913236634889 0.09202318782925173 1.1833002781254949
1.218559287704811 3.258590618561622 1.112480679539354
0.5678472750935303 0.6623604185023717 1.5492093054745224
-0.11461565143942849 1.0709117596805544 1.6460143536570742
0.4217798910009715 1.540196182888214 1.5951807808355791
0.4860931127056746 1.624052506286069 1.5767731243841352
1.6264525537181242 5.077574315281906 0.2777626513838612
1.5941780397602119 1.0865917522051698 0.4255542004801361
0.2631323729708214 0.9883155288721934 1.628883468605027
-0.37268867873385125 5.589277039010115 1.6073590603047023
1.6429474856903064 3.1592454408896904 0.1523927795661604
1.6320541218503974 3.6664997016147893 0.24269186914919086
-0.39116675947223073 2.2681479459612315 1.6029624344581483
0.926202996259117 3.6590801183187183 1.3655211494959107
1.6347797057759526 2.3705188155052124 0.2235963183576381
1.2473253967661 2.214259409989604 1.0801293230823295
0.6566536899628819 2.037197935722444 1.5137060254415753
0.39666696635035453 3.4416610745675955 1.6016102265552647
0.606593807588571 0.2603976809782973 1.5344523298542705
1.6028786661281322 4.038815094150286 0.3915098742960375
1.6141776625074498 0.19533888689090181 0.3419509816654794
1.6483594552685128 2.667777926503766 0.07356022177027328
0.6449857395849726 0.7217729263570776 1.5187143891239148
1.2173259167318995 5.461784613861979 1.1138301542213875
1.4036943965543238 1.1059608109573251 0.8672612300120376
-0.01816662092900913 3.819407285797025 1.6498999890551007
1.0711321067059496 4.022629975759626 1.2550601618980957
0.37046396355884337 1.9422162277001067 1.6078732697897156
1.3419851243073921 3.6342558003401826 0.9599874614481547
1.1528161544598041 1.9660684025886783 1.1804723266627257
1.554417980166242 0.9748199378371778 0.5534299801563874
1.5914517572549471 5.4986143831812475 0.4356389609873526
0.9503899306901064 3.195510814096666 1.3487990879455896
1.5992083727586701 0.5240203818801038 0.4062420220737461
0.06267852412637541 0.6014431020266371 1.6488090861629006
1.4504428905866715 1.446807886989916 0.7865846560584436
0.0733161435544296 2.1185101705896097 1.6483703294752385
-0.2720529916954592 4.564356596074784 1.6274173311445195
1.4689286998397457 4.04041999998935 0.7514974882107818
-0.3619857760815662 0.8904953630238217 1.609803186080406
-0.27968010777156754 3.985246540147554 1.6261239304914261
-0.12855073277573353 5.159858604038404 1.6449847139419933
-0.04836658629191302 0.5360868652861942 1.6492909607860182
1.0864343009248756 4.677027490690067 1.2418375536976953
0.2104515258033596 4.363097584219832 1.6365238022366304
0.3049274275971748 1.4747565218638274 1.6215792499594244
0.8788101544053062 3.7173294423102594 1.3964930048210489
1.6315098558237882 2.870428092823963 0.24632415705700095
0.5315224182383583 1.1985590292844184 1.562044787741391
1.2311120290823847 4.277185265684484 1.0985732437341869
0.5136461428280636 0.8012765533701537 1.5680139157411366
1.6314938338671878 2.9404598397435966 0.24643025393271945
0.6512109368312233 5.5865001039196045 1.5160555120942636
0.2779722655189672 3.788558325982324 1.6264167422903186
1.3804001417728435 2.5306067461615878 0.9038780053710308
-0.605499423488656 2.742851499178351 1.5348845064547707
1.1957186275611962 4.316903984630629 1.136994706981158
-0.12960328528437365 1.5861688843940684 1.6449021212350288
-0.579296115113617 0.7878241109492854 1.5449647280809586
0.8526141384680355 0.48299878505709 1.4126390660336452
1.1949491361086666 3.4413119915265757 1.1378033934354175
1.3971724370499798 5.684428464763163 0.8777295603702883
0.947478693792664 4.756522883143568 1.3508457072548836
-0.3961852183150895 2.950840854278169 1.601729463045687
-0.5119693986589673 2.0233255826792105 1.5685621871117432
-0.3306503279073468 5.029071071767237 1.616530346345148
0.05856101581223359 2.8502008814285804 1.6489604626633834
-0.19409620560942237 5.621462801273909 1.6385440680579892
-0.16169709445690075 0.43962333872852377 1.6420578703700415
1.350922066190043 1.717459447301745 0.9473698174846107
0.7395245017395995 0.839348231774303 1.474992715686012
1.303706912436919 0.8909190233780191 1.0113596227179507
0.9210877922957528 4.287036866689168 1.3689767269328343
0.3600300849564952 5.3568124985717915 1.6102417017100938
0.28372690894378033 4.138140102002248 1.625422726905591
1.0602953929139816 0.669635872299641 1.2642284919133033
0.3964737797531297 4.192965144292742 1.6016580602513968
1.1448732428762671 0.20314638604190802 1.1881772838032125
0.48393349949797493 4.3156958424914444 1.5774372786464899
0.6271461353994146 5.537281153602585 1.5261676594835767
0.9796897359845338 0.9053535182131697 1.327670147742486
1.6131413530800025 2.191841087927909 0.3468068266098847
0.12386150627276696 1.391461293393168 1.645344440311463
-0.603892581420263 0.4315256052285744 1.5355174209710454
-0.729535064297811 0.8116361006554578 1.4799589825262012
0.857850800899155 5.126113087072012 1.4094651479893634
-0.32724499882085034 3.608484097996829 1.6172231480988457
-0.6325624001129707 0.1826646689973279 1.5239307103550732
1.22233523872557 0.08736387874913286 1.1083305301983266
1.6184319734477017 2.684859258234102 0.32121324275654833
0.2564784930201906 1.975716395818557 1.6299444108981422
0.6918502305316102 5.443902608162317 1.4979463470075813
-0.4866792787291087 5.026633439281433 1.5765922997578399
1.5881873927563044 2.0662169550622083 0.4473933453795798
-0.3839030571451883 1.9282797458310574 1.604717558548724
0.46202570079732186 5.278277535801469 1.5839925037078753
1.308790580659151 2.439572553814807 1.0047722209425787
0.8278098843835621 0.70133307596374 1.4273159409594196
-0.5287154396380647 5.382547726016258 1.5629971157645584
-0.380617936896103 1.8719985837166486 1.6054999178177973
1.2373018738043358 5.526645520145625 1.0915970287062344
-0.3558982425712591 3.1521352244032355 1.6111599675186474
-0.7041292460696359 0.0020132351500708134 1.492213793271395
0.2778906901369894 5.377926154189661 1.626430682302565
1.5144157818761788 0.17074542635953108 0.6550151445610721
-0.32277981469161976 3.4876049381075185 1.6181202647602073
0.5126003294135764 1.6520770867828807 1.5683561146261051
0.677662145641157 5.653254853023482 1.5044181653931938
1.3215056245944259 1.1342294370442796 0.987989313791043
-0.07358667160079527 0.5492480424024304 1.6483582746971959
0.07801035190884528 2.0284245621065953 1.6481548425421253
0.7588767074249235 3.266726670391078 1.4651300771357834
-0.5090704072498606 3.047002643139988 1.5695054381754976
1.5413517603115994 1.6104833305752473 0.5888418726486199
-0.37695679411689015 0.8560087385722347 1.6063634630335428
0.273107197613009 0.39253056689520704 1.6272407500465225
0.6450980445971494 1.4915577154638378 1.5186666891905327
-0.7333272362989849 2.7733115274206424 1.4780836121485457
1.6499998936109987 5.647142741978458 0.0005925231575791048
-0.10187288417059615 1.8328146189382437 1.6468521231339395
0.2536515651902483 3.2572914504235957 1.6303867281956563
1.2711658290270331 5.186021741731858 1.0519683622210392
1.1639740560604177 3.4326337346512634 1.1694718452439372
1.3576080722598973 1.4805014120907642 0.9377634681169688
1.471117998336207 5.523931659551384 0.7472026732896979
-0.5715767240663928 0.11170774875831552 1.5478372164105405
1.16045481233725 5.22799201870929 1.1729640354773534
0.42177941117308027 1.889729362141861 1.5951809077062356
1.2801892494012526 0.7962011617595953 1.0409685325299018
1.617565877697483 1.4430790616515032 0.3255466653319788
1.6136688232491376 3.355316669004824 0.34434420116177805
0.27474239139045387 4.4487606015697265 1.626965463177708
1.6459810523044924 3.2683447410620565 0.11509289923620622
0.13246575566802588 2.841116880960659 1.6446740782219735
-0.5880660952289333 3.2353874005529994 1.54164790650855
-0.5684339109788689 4.335965003939032 1.5489941539106165
-0.8179570608984371 0.5739639478238693 1.4329850824507526
0.4735799496266051 2.063056904895298 1.5805764870172092
1.2686096244281357 2.7200172274705285 1.055049582156357
1.17646597758772 4.915619388506506 1.1569044055489501
-0.22260730784131452 4.925585304385488 1.6349146725427728
1.242939863239847 2.0925224520193315 1.0851730260052128
1.3471785036266317 5.321239779966909 0.952685719094345
0.9715184346332398 2.31097970973727 1.3336611005678238
1.6482257330959362 3.1494529112624345 0.07649792651021808
0.4927462478504617 2.816396804457631 1.574706682283812
-0.39985620742217515 5.654792481627903 1.600816983101427
-0.7030661478405711 5.28780293336117 1.492714973382601
0.2991001357681167 2.3962323389036073 1.6226642008695125
0.20936847627451943 4.042783676369597 1.636662714532987
0.5980149870016064 1.655482185750229 1.5378160082797514
1.3836181183412002 1.6730144045164197 0.898944326751082
-0.5371514462706601 3.8435983161069966 1.5601180480237187
1.0259480491766362 2.6291983873148657 1.2922579465380177
1.6468459863161238 1.2995110194926123 0.10197204202364968
1.3576915053207648 3.3134814831179287 0.9376426698800749
-0.37176291581724774 1.109128147910258 1.6075734304917637
1.031084688399817 2.22995226556628 1.2881631749694802
1.614547704675541 1.052263118231116 0.34019951400162507
0.5402350455069639 3.669308125429538 1.5590529483010154
1.649790610823148 5.23226709714798 0.02628574594308563
1.3279215171066368 5.049946622887072 0.9793489900976098
0.26435216415176527 5.4903241087420644 1.62868595294129
0.5846102534584052 5.433679831363709 1.5429617142208354
0.36670819996901477 4.981639417632495 1.6087340041397413
0.5527809863444794 0.8735457139756932 1.5546488932025855
1.5905717703735924 1.5994406818095188 0.4388410227982516
-0.3318599767226722 1.0679372918337076 1.6162824492797128
1.5810043065402666 0.269725023307281 0.4721497460564084
1.6066116029022366 0.4225501843290267 0.3758978018290415
0.34661686343736975 3.771263379772788 1.6131821812742786
0.7110247033474054 5.631715945004077 1.4889405197084717
-0.27950823288700144 5.66066837493922 1.626153482223737
0.7116616071736148 2.8976790926181883 1.4886362070281198
1.5188866421925564 2.226433430795784 0.6445799936152388
-0.12319382101095491 5.266525712808006 1.645394567410723
1.639040024528223 3.9875280193519176 0.18986257660350433
-0.14863375278616614 1.3208041289832513 1.6432918205640472
-0.3690907077325832 0.8904447003925927 1.6081890589932082
0.2031455134722345 4.36393182700554 1.6374467626021012
1.5421828387556689 3.2780128473533274 0.5866618206833527
0.005799053046685347 2.9668687522395256 1.6499898093575491
0.8588441449090377 0.3432375456341887 1.4088600834559348
1.0594930014190513 1.7276211293425234 1.26490101586806
1.64846236733977 3.53764703822535 0.07121673584601351
-0.04321893503397229 5.36455130803566 1.6494338797461778
1.0845414746556554 2.0479821886275236 1.2434909689063833
-0.6496883736811377 4.881580270324414 1.5167086131170873
1.5111784951951865 1.4265415570179498 0.6624496627364311
1.2959545856611976 5.523943389742363 1.0212745526564897
0.32136020263902515 1.2000540051497897 1.6184027991077512
1.4369255830703578 2.640612166573564 0.8110147154755655
1.2174948594075596 3.455289462546073 1.113645485473796
1.631481235484546 1.4487224757479231 0.2465136472121151
0.5922670202578219 5.409905441023948 1.540038888052805
-0.37283865186227466 1.054437795785298 1.6073242795644944
-0.40153751264669174 1.1667552829130925 1.6003960840796592
1.5183872215981953 2.596179216648643 0.645755561561271
1.1972635303670778 1.3600875901689464 1.135367798932558
1.1687607441526242 1.2399880594674977 1.1646880796710355
0.6137776991805911 0.5514370213076935 1.5315929406955948
0.20077373927457484 0.5242099634770709 1.6377392666776067
1.6494065436933785 1.4140090745201424 0.04424989967743646
-0.4324400785206551 1.9191042979518216 1.5923239552581785
-0.2767879100165962 0.6237973322047093 1.6266187177297096
1.443109378435865 3.3898723510376145 0.7999595751476762
0.7292506549246859 2.9554211545818347 1.4800991461020159
0.9596238545892841 1.5571395637372345 1.3422451555893968
0.12401561243432267 3.699028599912505 1.6453328319439018
-0.3333698091946819 1.2528450390021226 1.6159717108654783
1.0123168347248352 5.268329016074529 1.3029637854263987
-0.6272250583480722 3.4909493449853026 1.5261352253913338
-0.262465326860619 3.097562069145265 1.62899108413642
1.2801825166665841 3.0738623155718954 1.0409768124320593
1.593799851473027 3.819158380805477 0.4269684220695447
-0.6970441910502294 5.548741690637598 1.4955364909366575
0.37025793955152697 1.1279649068903301 1.607920725097807
0.6350611827064547 0.4695295540854019 1.5228910972947076
1.4597975156062422 0.7584755394106888 0.7690846594685418
1.4156836313107246 1.6458668073256684 0.8475493236613905
-0.16686111957306815 0.587177824236261 1.641541155979594
1.627164762033904 2.1544350178718563 0.2735595679100771
-0.2795681970140677 1.2126433059340431 1.6261431742679682
0.983181087712932 4.4980515918659405 1.325086770277183
0.7221162772545593 4.688240249626359 1.4835929637619665
-0.5882029013855651 0.82316810816862 1.54159571444708
1.649920348544323 1.7993070611626383 0.016212447667753555
0.1070599022372803 4.0252841352198 1.6465230570304639
0.84332320572661 1.9297562164656967 1.418205193433938
0.9413134172429942 2.788438804305199 1.3551490879302974
-0.7256518467132628 5.54514858200905 1.481866862225359
0.8431280929078113 2.982734061636625 1.4183211973843006
0.3167137047187672 0.508651203483101 1.6193185076578707
0.7181675399495423 3.778755424626671 1.4855084599432016
1.2667716703181637 3.516112547598569 1.0572556622119973
0.6952731316829813 3.6858191276499377 1.4963606758932617
1.3264324763855406 2.5677657669649174 0.9813648075969111
1.110391151016226 0.4433377889006693 1.2204636380264922
1.2032915559537318 5.531972797723857 1.1289771615805375
1.1883518986378652 2.1174549360693797 1.144691995693069
-0.018118614608578866 1.1093990058085121 1.6499005169417535
1.4593266712213786 4.679435530247742 0.7699777053018678
1.00003993410861 0.36775220988461094 1.312410046512921
1.124392168586689 0.6736326524655775 1.207577016682962
1.620790104194028 3.743712551196174 0.3090945456437418
1.6391757971344865 0.4316146547847365 0.18868679362509874
0.7262989190174322 5.1209181795197996 1.4815498237434033
1.3087967454818084 3.316056638006712 1.0047641907513556
1.5053776025794965 1.5663248979156503 0.6755281442338337
1.0574443933405275 1.5003477683773234 1.2666141302672584
-0.4313526567558146 2.646216491595782 1.5926188764138456
1.649814510868714 0.45063571291777244 0.024740245088244774
0.6279677110497297 0.20440668182540297 1.5258297919096229
1.2031766336510121 0.48896563350430156 1.129099636097815
1.5243603782975463 3.3284091598446404 0.6315262758401755
0.744459966014524 0.6172629344074422 1.4725078468387371
1.0041869740478964 2.0532399990445507 1.3092396729218563
0.5392595885052963 0.7376794876450178 1.55939061694147
1.62943215854335 0.11831340598873961 0.25971299679600035
-0.3254079124478188 3.130473231798487 1.6175937965126945
-0.1263289153298985 2.38271126135236 1.6451568329954356
0.8810543966580738 3.7231108785775273 1.3950781878194058
0.9678593744364022 2.9047564166997786 1.3363189107827427
1.0565751026339036 3.2802760560971778 1.2673393596405642
1.5218204096777894 4.099869145997509 0.6376226475652546
0.15765285890777986 4.496730857670402 1.6424510878800025
0.42081011454522727 2.605348154671687 1.5954368829560237
-0.7170459724501953 3.703401573445388 1.486050158437781
1.6087234431238033 3.125844116430418 0.3667545276392575
0.051214414815190804 1.8983496147722347 1.6492049853535908
0.2228709049021201 3.5113386242324 1.6348787599538108
1.1681495756728613 2.774944676811625 1.165301063612024
0.6193276851753879 1.6353348265524856 1.5293571258457899
1.2098774002352513 2.315912437735505 1.1219165193542653
-0.2110718783580952 3.4168120323734428 1.6364439074304946
1.5932493804870942 1.0536278602344389 0.4290179618355043
-0.3837625706507129 0.6668571427617399 1.6047511611983822
1.1033598732558745 2.7925694226728397 1.2268239442107334
1.57344215237279 5.225841092187238 0.49676935607632056
0.17828681885242953 1.8628797995718436 1.6403395411388095
0.332104850582415 2.1460089917907177 1.6162321517095344
1.524685386709084 1.003001304655604 0.6307412080685477
0.9042804598845355 3.1386617087235744 1.3801365330542528
-0.13888126894342326 1.9786029901708697 1.6441447603957091
1.502713792054217 2.350655217172747 0.681433238967718
1.362365533859529 2.881979052799972 0.9308384135561014
0.46766967252428093 1.4419062383382564 1.5823353239440214
-0.38749136122737526 2.335968697149136 1.60385487029661
1.264995361654072 1.8164660917378361 1.0593803542607743
1.5623772301076149 0.35679966125011375 0.530544428715689
1.6023307508146967 4.371740019172416 0.39374632060961556
-0.7437501181862199 1.9330565593551798 1.4728665118394075
1.4265927214670426 5.302015964244654 0.8290556115588731
-0.5322816060100849 4.567227859865871 1.5617862503887414
0.5242171162416487 5.5617979820486605 1.5645115579756161
-0.12207122768973756 3.524715767326551 1.6454782330284166
1.1739223632369546 3.935070364918985 1.1594853535479277
0.0867658541587945 0.4117386667342341 1.647717113630885
1.111107566787498 0.5726938070423465 1.2198114506052011
1.5611694425750804 3.498288273740841 0.5340879811134235
1.4861598960495006 1.104538859346508 0.7168185009987796
0.24523207613148992 0.9972800724124318 1.6316743636020756
1.5025755462112373 5.3486481427268275 0.6817380200106207
-0.5050339747179395 3.8704013035942255 1.5708089267573568
-0.7984030104633223 4.9657265667463095 1.4439711329812324
1.160984715705408 0.18147809898126727 1.172439546372619
1.6491241751877492 2.542109473381483 0.05375364928379745
-0.758180433908273 3.9494267976476207 1.4654905082049021
0.059555323816414436 0.08915609734718603 1.6489248507452126
1.457942308842958 0.032218584729561704 0.7725957701707049
-0.39981589336452245 4.404659595973963 1.6008270523117507
0.3382019053086381 4.054427213765017 1.614967328228533
0.05448700888534706 0.44591749280874304 1.649100107896039
1.6499266194770768 3.6134566033680424 0.015561180576843869
1.6122852644734247 3.2439628186519625 0.3507652006141132
1.4006022950594625 2.9471690766520116 0.8722460725472865
0.9589938258439932 1.6275388187265338 1.3426953645533677
-0.5513611341996502 0.929672785585904 1.5551530148811965
0.5280309292196274 0.2298673652520091 1.5632284982648752
-0.6450650266010292 3.9785459193564745 1.518680714125327
1.6304675170772536 4.464490306628907 0.25313173597148064
0.1463914481922351 3.9948448323937567 1.643493092135218
1.2385998693626863 1.195751934472045 1.090124012952075
1.6421200956432098 3.4339443368312486 0.16106393601528265
0.06404861523902863 5.189211358663052 1.6487564328565827
-0.4191198247279183 3.850704383360992 1.5958817539279153
-0.5876140837557524 4.332751107563279 1.5418202517063677
-0.7577138978759067 4.631332600585388 1.4657317793394875
1.4613940664268332 0.9392439965891469 0.7660465929775057
-0.2751653197744795 0.019428009358736897 1.6268939875706125
0.4594472126746868 3.969572028700654 1.5847423319787544
0.6132049593494258 0.7741964376252555 1.5318223388595913
1.3532762439642367 4.98252469955403 0.9440039234675074
-0.43093001935614417 2.480701767976317 1.5927332853989435
1.6336653417082756 5.452641913912964 0.23159782231528644
-0.48774128770402103 2.005481065479268 1.5762640756766688
-0.31193384009249714 0.7061294939529165 1.6202460552043163
0.6630475178320432 1.7054455202873995 1.510916274681283
1.6488232814088937 5.400455461625363 0.062303986100473906
1.6497294612570532 2.9170426109883114 0.029878163606766338
-0.5605343919549864 3.923297729591081 1.5518702250625382
1.0927644861905774 0.0950271367429557 1.2362709159891465
0.21026194750123062 4.437628718500421 1.6365481702146716
-0.5440275160448889 1.1884175580545107 1.5577336299207345
0.3568695091412269 2.3134723933926575 1.6109451118661056
0.013798171215549595 2.9570725182533573 1.6499423051946713
1.119885594489369 0.07535923692189046 1.2117575067872253
0.3143003544841823 2.1766406967044696 1.6197886550939653
1.6185493188874758 0.9212762243556649 0.3206214314871791
0.06765506884802247 1.766522802664275 1.6486123836909539
0.13656335784697882 3.301544916880743 1.6443389094993641
0.7352780451826655 1.0652381835357823 1.4771141446321465
1.432527667580767 4.658214987671545 0.8187578894982371
0.6949733379658033 1.9740149783155532 1.4964999363570548
0.841282331408802 2.8934867045260924 1.4194167953280568
1.2101049165015076 0.076761723373606 1.1216711153715597
0.9492679181021505 2.716746750206312 1.349588981750373
1.6439202408685623 4.501354911548042 0.14151410411209261
-0.8244221510357393 1.493300069492352 1.4292753817517476
1.5232776656457103 4.672956705247911 0.6341333876598484
1.635378302130959 3.553708869789369 0.21917529267520505
-0.8180257190901984 2.5609854909712686 1.4329458897344882
-0.17680813483831567 2.3000615580841064 1.640499583497355
1.0101497732195148 0.6755558078275363 1.304644562961331
1.6108968093542104 0.2034682116581001 0.3570874817358125
0.049942836451119715 2.3576778913854506 1.6492439822801284
1.4448310053610778 3.7544429394762275 0.7968458859448903
0.12818088344507084 2.2110624192343287 1.6450135747522696
-0.05024031665469088 2.191658956103693 1.6492349470534622
0.8692871018612146 4.350430438593374 1.4024407062466955
-0.823561558991321 3.8609308790054997 1.4297714357727898
0.3927276762432718 4.733948954406049 1.602580722557388
1.339770364322337 1.2382154486199946 0.9630759943449902
1.6499703048593606 1.052320659116028 0.009899145534250947
-0.2578342756905545 0.5527003962382878 1.6297304949834888
1.5930962590760989 5.278765968928726 0.42958620708507284
1.6398499889854694 3.596819285204593 0.18273481776704623
-0.27088363765128465 1.2240451928281373 1.6276123785633996
1.3847221129768454 5.572044883217323 0.8972428154256462
0.46874317009950056 0.3796728271811197 1.5820176486010107
1.4293639988014868 0.3345302874352195 0.8242684992951165
1.034565905540041 4.82801923764232 1.2853689692435069
1.4108136091064558 1.6348088037095698 0.8556313226851949
1.5622231857143216 0.5446066533894124 0.5309978512353851
1.6096881249012318 3.6039625837554334 0.3624970904048146
0.983784727262032 2.525810033293874 1.324638671640674
1.129267204553026 1.0093955342817915 1.203019360077382
-0.23641823484624544 4.568250239031757 1.6329747145109703
0.7254450691242792 1.315048892272728 1.481968100764409
1.5468774095401703 1.112051174047032 0.5741692083822434
1.3042442218986428 5.052865086408854 1.0106666164685583
-0.7983992577877863 1.4724989087789866 1.443973207910698
1.6141529774425118 2.754556231086191 0.34206748663600506
1.6439049636463825 4.747517268343352 0.14169146233554583
0.7693876476190219 3.3001156606317026 1.459637848129209
1.031446343790425 4.554977646033578 1.2878736117652865
1.0729702671415295 1.1584146541953062 1.253489052935938
-0.1963639434924832 2.098208113050916 1.6382738482000134
0.40401428212117596 3.82381013072561 1.5997726275449617
0.3366236090931532 2.95312158844082 1.6152970456857463
1.367838145574698 4.4085455230134505 0.9227777671307276
-0.13573089970451213 2.6233595569347585 1.644407833496728
0.7510898569611947 0.7622897775774939 1.4691371708489347
0.7790489615315326 3.2585283623295225 1.454504285155819
0.9727720239136337 4.510280880705723 1.3327470088096136
1.0582137175564923 1.4725017946318166 1.2659714562245343
0.5996249822033373 0.0578160124360409 1.5371889541359731
1.4298417085166562 4.7900810805364 0.8234395476209344
0.2711819993738903 3.093038860621185 1.6275626940967833
0.6578396761237757 2.288058412884828 1.513190986134059
0.8145942312615436 4.921901091831882 1.4348993826730203
0.9302970219973085 3.856407198998613 1.3627352827541155
1.0969540591870195 3.690747026821948 1.2325549853994833
1.1953197557988087 2.2083828259124867 1.1374140325304045
-0.5486804339898157 0.1482938237884702 1.5561008262181302
-0.3530599270626199 1.9848234487478347 1.6117843180470943
1.6109825066274943 4.527579319966133 0.35670066349839513
1.566678202625169 3.4034098830096817 0.517705910164419
0.7814269607872868 3.5032931456454786 1.4532280980474965
1.5286910153453745 1.4110544407017778 0.6209700311627989
0.5186923715578283 5.7 0.0871683295220534
0.7459446638653758 5.7 0.6508776621235226
0.11033664287894826 5.7 0.07833776622425481
1.3057070352163471 5.7 0.2602721938966956
0.3063228764133216 5.7 1.044440538740535
1.4497342593561136 5.7 0.4018091935680375
0.016178418330684567 5.7 0.7974169722506059
1.4318263878522943 5.7 0.03255824206638856
0.03187554543315198 5.7 1.5572358430511406
-0.049299921672153656 5.7 0.16607800987793267
0.29307834331248084 5.7 0.577783521208722
0.3580322211497026 5.7 0.003005459615976208
0.4928499133943946 5.7 0.7084240174778915
0.8829139334551567 5.7 0.7906895898290719
0.8133434055369317 5.7 0.15515449407377738
0.6719287979227025 5.7 1.287191399819277
0.3648563046308265 5.7 0.13360654934850233
0.020019282364424296 5.7 0.8210981500552649
0.3714858357453187 5.7 1.1499204960449367
0.4119553037316869 5.7 1.0932225805499587
0.4158433657273801 5.7 0.7690924218689326
0.9439744296646503 5.7 1.0281043799614547
1.3266687758410218 5.7 0.741109525758386
0.5805627235029228 5.7 0.9737027278429232
0.015433787731221438 5.7 0.7124419818329818
0.45648567638847865 5.7 1.161945111414956
-0.21865028473688503 5.7 1.2268494727688828
-0.2825944230022466 5.7 0.9473433404156705
0.0032296823096593327 5.7 1.4174175120476094
-0.06209643527258887 5.7 0.16191542926709607
1.0862130382419826 5.7 0.2877156241734661
0.16347487958086065 5.7 1.4989887939330429
-0.3783989766200568 5.7 1.4324739285952388
0.0009812624137942642 5.7 0.2578048432037736
0.2400079095350265 5.7 1.5140682704466282
-0.14829228958781396 5.7 0.608469882141113
0.9579440809946087 5.7 0.3364545096697841
-0.5835586743458951 5.7 1.3002112360722957
1.2069645867888301 5.7 0.7043588335216916
1.4998160624501629 5.7 0.5909413027726031
0.5777554342294846 5.7 1.2677054113318982
0.36437492322242193 5.7 1.4519150389508946
1.3218359331202987 5.7 0.4926630668406815
0.801605347997671 5.7 0.6894369342986166
0.04108461221973825 5.7 1.1819899537091663
0.550311430242447 5.7 0.881692428090686
-0.17719482157474759 5.7 0.8940574185901804
-0.14808652022606095 5.7 1.5297205950124824
0.9598299823013557 5.7 0.5922659201065039
-0.5058219991865425 5.7 1.4105861129700898
0.21441847902862773 5.7 0.03179552717911381
0.7251669514750634 5.7 0.4611103957997161
0.9273405368512643 5.7 0.21239173370654985
-0.0727124656379173 5.7 0.5803469205813807
0.9392556969520284 5.7 1.1949983277662255
0.7540291565538864 5.7 0.12792192475790254
0.7685636580946499 5.7 0.2888514051956591
-0.18252938979397745 5.7 0.4047613086651011
0.09009855720740312 5.7 1.0162756729669395
0.36137108263615586 5.7 0.1664524965043907
-0.413673710051461 5.7 0.9843590088633907
0.18963588228082792 5.7 1.212252490488781
0.3540043950784756 5.7 0.5762155931573307
0.490269138563641 5.7 0.5430848240938982
0.3110148347890203 5.7 1.208023812420808
1.5090389911604452 5.7 0.39683513210613086
-0.25507066298514064 5.7 1.1289825884931763
0.5422540355096328 5.7 1.3468476952015236
0.03850861653989303 5.7 0.7466229471064377
-0.16737208556292105 5.7 0.303338029646675
1.4385218917870775 5.7 0.7019730388815852
0.07462716843215765 5.7 0.9029386764973615
0.013437250870183978 5.7 1.404851587653984
0.38330767852627706 5.7 1.4995323762896757
0.8762225301932646 5.7 0.8503588190735494
0.5057280293785151 5.7 0.3256994405844889
1.043883829205742 5.7 0.4408163664946687
0.6804225696514856 5.7 1.1831613885433316
0.9237280617995661 5.7 0.4697338818660274
1.105451876064234 5.7 0.3669355048934653
-0.14462418140691283 5.7 0.968671117406161
0.18016607667117046 5.7 1.2707200646109007
0.8746921099867847 5.7 1.0033149197526066
0.20586531873083586 5.7 0.787378241523477
0.21549548115812098 5.7 0.4494648848274406
-0.4576405303614644 5.7 0.8955058073325953
0.807578394436423 5.7 1.0490756992961316
0.10100440363052281 5.7 0.09567599200244634
1.4362757764379128 5.7 0.6186378369371364
-0.3351304212539564 5.7 0.9939410273816411
-0.5135337731913089 5.7 1.4220704098438488
1.6409828014180852 5.7 0.07159613965082998
-0.13741263141827773 5.7 1.4106642542508336
-0.4087383039399128 5.7 0.77694329794475
1.3392882082392996 5.7 0.7111261707975182
0.6598702895059755 5.7 0.844167950967148
0.5660245944477571 5.7 1.4291043895942164
1.1392176634051798 5.7 0.26931489046276164
1.1725220769992608 5.7 1.0414491294610912
1.1538402765955968 5.7 0.48807289486392813
1.1875070201808804 5.7 0.6717075169185724
1.0584505606507222 5.7 0.9481986727040345
0.8702211198796719 5.7 1.3006357231146402
1.0124783103303974 5.7 0.3623741670595495
0.8281732351571163 5.7 1.0223361263694508
-0.16768446261092482 5.7 1.0527920700374835
0.21560102061007994 5.7 0.17212008663904274
0.11327160947584208 5.7 0.844354307873953
1.2998732032766893 5.7 0.354966328588492
-0.05580316312272546 5.7 0.8300799107739835
0.6478225553755868 5.7 0.6226442866705723
0.11429944497832212 5.7 0.11842420934619521
1.501986160663207 5.7 0.3442534580234958
-0.08108609673218338 5.7 0.31177092882497853
0.9676523518010878 5.7 0.7187988210976098
1.0574648322952749 5.7 1.162374101444194
1.2243374128967943 5.7 0.8916033844499763
1.3438538367324666 5.7 0.010690773219151038
0.05667632886720402 5.7 0.47051401323271635
0.7743543770937797 5.7 1.4296656559146161
0.540411832439455 5.7 0.11266382879520372
-0.5215274403338651 5.7 1.5013353304556272
-0.799981859487584 5.7 1.4249450425216628
0.3958295950007715 5.7 1.2685000319183517
0.384414607702635 5.7 1.391645946033621
0.6489232030522719 5.7 1.0037516987739226
0.9818618221155795 5.7 0.4294011512271548
0.8015454124560606 5.7 0.9925185027155585
0.34108881615616765 5.7 1.5809436326108635
-0.4105967585787165 5.7 1.477476038649741
0.7285641927616564 5.7 0.46036164497772203
0.47782720132611134 5.7 1.578511608655911
1.0780359787735672 5.7 0.01895499343886628
1.3296571713901062 5.7 0.23640475398378383
-0.021066997903210063 5.7 0.6250175416548003
1.1133506966435271 5.7 0.17283605868988633
1.5653654806357171 5.7 0.12356018761224635
0.13922279043061875 5.7 1.032699296863446
1.061825198628213 5.7 1.050837354721124
0.43987068717142086 5.7 0.3998373755761727
-0.09287360188175744 5.7 0.8517535456679614
0.31093854926846654 5.7 0.6796836380475465
0.12351115639545644 5.7 0.6311287808085494
0.1797638034465302 5.7 0.9301236443372025
0.8486977306256794 5.7 0.5487267942837084
1.1894156131760523 5.7 1.0722382183647152
0.11379475908295189 5.7 0.2520865976660117
-0.11312953957607354 5.7 0.7177101393440758
0.6971110582335988 5.7 1.2467753579860321
-0.10779070469011877 5.7 0.5932668465550068
0.49073270671995045 5.7 1.2040583327147911
0.59879976172499 5.7 1.1641423419395316
0.025228515775462767 5.7 1.6487397421087284
0.11189706672070679 5.7 0.8570603045076541
1.2124971105317877 5.7 0.5513581816556249
0.7083003862330235 5.7 0.41982591473806957
-0.03937342213057581 5.7 0.42139652873301625
0.3478626363444108 5.7 0.01019994632915059
1.083687289438696 5.7 1.242454569648788
0.546321302962873 5.7 0.023940699445921948
-0.1112977468478866 5.7 0.33801019712537744
-0.5198034214887717 5.7 1.201979485554278
1.3721572382850906 5.7 0.5460285009562431
0.4716908696701588 5.7 0.1544577708161124
0.18841368408389952 5.7 0.8726336591901446
0.7859617511647381 5.7 0.6571881392592208
0.6545562571592579 5.7 1.4070442024927423
-0.1355596212624935 5.7 1.6143576564263065
0.3670663824686392 5.7 1.5679352864099454
0.2939010599146397 5.7 0.09119661752678139
-0.31964683879619704 5.7 0.6661131420062336
-0.04915923874300885 5.7 0.1030787068819776
1.1239773959801962 5.7 0.05490988273430191
0.6605565216130593 5.7 1.2844046026584917
0.8356235288462951 5.7 1.1303041952801527
1.1523957186901106 5.7 1.1241339086556241
0.43708352306297854 5.7 0.4637483614785026
0.38793972089535544 5.7 1.4095467330837244
-0.13558050662629745 5.7 0.7769707846683159
1.5248637967811913 5.7 0.21216602099028745
-0.48447120281190714 5.7 1.4700866555217185
0.17685855560823693 5.7 1.4893441040017936
1.5839973070852473 5.7 0.17413136267123933
0.7628323669619228 5.7 0.15241143364317783
1.3254879568476228 5.7 0.6781533166430538
0.341103529531836 5.7 0.28961105933794573
-0.2699652630223124 5.7 1.5797431018004677
1.1993610426569594 5.7 0.9258587769539943
0.3720225808976088 5.7 0.6026085776806839
-0.2219899313246626 5.7 0.6032716360639648
1.2046342094748905 5.7 0.5663123564194485
1.4139056552026015 5.7 0.4848523038832489
-0.006112348514684503 5.7 0.2000314783146186
-0.06862357122100639 5.7 1.6247213845806332
1.3501271187351218 5.7 0.14201427982719197
0.22963690520198357 5.7 0.09468480767000356
0.7375211784869578 5.7 1.43461505660028
0.7245272502684056 5.7 1.0874412427298585
-0.03502454493392585 5.7 0.7657204523029666
0.397380202902281 5.7 1.4406350110261719
0.35693128947998515 5.7 1.0548144012589242
1.1812645872556078 5.7 0.49817230611521524
0.13100058917670507 5.7 0.08255287556864899
-0.08934719983697834 5.7 1.6054281614376251
0.3433987294988277 5.7 1.1468554691681099
0.7564184020861365 5.7 0.7196391155491115
1.038505516854842 5.7 1.1093942129344758
0.009411516282010882 5.7 1.360699611348996
1.3182817074289441 5.7 0.9108561327672979
0.3478579750637475 5.7 0.2370041871059657
-0.15179829062579375 5.7 0.8458905487402408
-0.15442812823019006 5.7 0.3172094449903034
1.4025065705974793 5.7 0.014003027967633575
-0.22582795270711895 5.7 0.7798868496017437
0.33849632918494693 5.7 1.1567691048154713
0.7083451228021068 5.7 1.297209077511337
0.8633531064014761 5.7 0.7545584567682193
-0.04189392355833513 5.7 1.0866379773977641
0.21814359829121543 5.7 0.20266197457271823
0.29334910411733084 5.7 1.055248312692084
0.1461944464968459 5.7 0.41790229477346746
0.09207410926528142 5.7 0.7262618130155639
0.7109726942048243 5.7 1.0788174796531607
0.7466505683310364 5.7 0.9886871898629876
0.9406181379507372 5.7 0.937798809861881
-0.14136343376237243 5.7 0.4881536509231164
0.012267730062783588 5.7 0.4307918607932869
-0.0546304020618055 5.7 0.4354502781169295
-0.49156702214087433 5.7 1.3928478446943076
0.921057445442056 5.7 0.6956316376385437
0.9668287875919649 5.7 0.9429406990159627
1.3841893618000856 5.7 0.2385670791943377
0.3522409019652381 5.7 1.0009682499099735
0.5457254104668657 5.7 0.37979162668134336
0.5169359351480436 5.7 1.4443630284521607
-0.2739811615632748 5.7 1.2302029456484183
-0.7317725294611775 5.7 1.3951791413440728
0.1747171321748019 5.7 1.4357082315000183
1.3440204077251712 5.7 0.12478627195145538
-0.7471234333952765 5.7 1.4458681968142886
-0.2626275102290794 5.7 1.606597335931888
-0.24936102270108104 5.7 1.1294553316922902
1.5176526311663394 5.7 0.5453334395135211
-0.5917520220754673 5.7 1.16833674891152
1.4985635045848846 5.7 0.6215468259218458
1.26654905449667 5.7 0.7131797484783382
0.6991843475070745 5.7 1.330558730446549
1.4240669252993026 5.7 0.20448441455915886
-0.30638622136535665 5.7 0.58656014273306
-0.06881390534025546 5.7 1.5155503527264793
0.17119127066513634 5.7 0.46025614798110925
-0.19641572344822728 5.7 1.0840978531702874
-0.038955476390356666 5.7 0.14982724095440106
-0.25909488896535005 5.7 1.6145507976274869
1.5351054278534753 5.7 0.4762561697772668
0.965249303996183 5.7 0.5787610219208237
-0.09608315505697886 5.7 0.8206363891857948
0.2818629697643817 5.7 0.045653040109954385
0.6899688140645706 5.7 1.4103233627197214
0.12286870099850569 5.7 1.0981903917967792
0.17213629472884076 5.7 0.8665647119560538
1.5149795723674666 5.7 0.018680418065373062
1.4279579306830303 5.7 0.7211695338489136
0.012971914110075226 5.7 0.2622790751862077
1.2974610600801246 5.7 0.799846311359234
-0.30172305295569446 5.7 1.5930795387794658
0.32824760674483483 5.7 0.4203465223642238
-0.03141689697295645 5.7 0.07523674670848575
-0.011806516855034012 5.7 1.3049232649204805
0.6152880819373308 5.7 0.018277684349104373
0.5420977434485639 5.7 0.30112846715091685
0.16856386431165707 5.7 0.33514772736302845
1.4700085010430426 5.7 0.5279167804471124
0.17909443266174158 5.7 0.6364712978751783
-0.3600230852210453 5.7 1.4176119247252805
0.19495813083656247 5.7 0.6556690271026143
0.6867071894667941 5.7 1.1726202718126644
-0.6866250157480359 5.7 1.467202700576711
0.35962002131972787 5.7 0.3640807160004525
1.0064810885249202 5.7 0.44475431287748296
-0.44208960586530094 5.7 1.236479405498846
-0.16226140912787304 5.7 0.6728147659645701
0.09175167985245332 5.7 1.066073816563427
-0.2438473236665297 5.7 0.9924408157324206
0.046604239849153885 5.7 0.3051237491015495
1.121977974470721 5.7 1.0951917511229419
-0.6055935825491706 5.7 1.2453505485460559
0.4831563114773344 5.7 0.8002422929785793
0.5430305958884255 5.7 0.7912709525701492
-0.6511870653091717 5.7 1.3025698560663275
0.3911334773405218 5.7 0.010488286621641717
0.5905087846591022 5.7 0.38992414472621256
0.9917156020071238 5.7 0.8317941043999838
1.0977464318367358 5.7 0.48505311238607185
0.5894540113224438 5.7 1.0485798179169314
1.015291093938479 5.7 0.15056122223211513
0.27568371968521066 5.7 1.0356482890642444
-0.4930148717768229 5.7 1.503631997718833
-0.4074766307923895 5.7 1.3163057603752246
0.1886090093481468 5.7 0.2183041945680303
0.9702674112056021 5.7 0.9425803501187103
0.175613113878891 5.7 0.7854963255962719
0.22312341286623388 5.7 1.6157120120551394
1.02754316449915 5.7 1.077161526474619
1.1036318393806017 5.7 0.6691236590804933
0.2811668859523949 5.7 0.1546558464973807
0.3625097020057663 5.7 1.2580036437466582
0.13286965253921068 5.7 0.6401782078991302
-0.008335199686482424 5.7 0.2864816263626094
0.09588799454353114 5.7 0.4077042439291769
-0.7186467527616692 5.7 1.326277342394501
0.4225388252447152 5.7 0.06304374832232681
-0.2957300479055783 5.7 1.2493902478054353
0.11714830731604564 5.7 1.2569831298119403
0.13098231094675677 5.7 0.16675855941242063
0.22254983928533356 0.0 0.13109117252287703
-0.5521371600799211 0.0 1.3960923296741359
0.5088454910198195 0.0 0.05376011692767704
0.43812445027566654 0.0 0.7118849946772502
0.883653986079248 0.0 0.4246378747878143
0.886444591212731 0.0 1.3427978129021014
-0.22391822067788014 0.0 1.5561578800609075
1.341169031235401 0.0 0.20965849925922211
0.5862923347630292 0.0 0.08129861477738634
0.6562478763589968 0.0 0.6542889942809892
0.07678403784930192 0.0 1.2659482029957676
0.14089768600939492 0.0 0.470805037761776
1.3720436204258575 0.0 0.28776969072379993
0.5634018171704268 0.0 1.1675492233465306
0.28986424928495996 0.0 0.6901985638162964
-0.14921311113375493 0.0 1.338949889161185
1.0275846597520184 0.0 0.35084743013442266
-0.16752807279132512 0.0 1.0918524432112828
0.5406169849452567 0.0 0.9169128931478676
0.3595454520472972 0.0 0.5765455775892769
0.7967769245839433 0.0 0.3257993998675329
-0.2609550533222819 0.0 0.9560630261710558
1.2800884406185344 0.0 0.6654638196122056
0.983897487658912 0.0 0.7982721740646692
1.427340730713999 0.0 0.5553487587794236
0.24662920946312222 0.0 1.5471691490353583
0.4460246965674136 0.0 0.7568842739830293
0.16092586957693011 0.0 0.49049858535878843
-0.5868878657928507 0.0 1.0969968604780165
0.7678097171327118 0.0 0.39993934651464
0.6583542959513697 0.0 1.438484681519564
0.18684721334285673 0.0 0.1432022703076384
-0.11252849081086465 0.0 1.0086102575929237
-0.5024452343795885 0.0 1.307062196366286
0.7811468783247086 0.0 0.2764395501639016
0.5532522081535332 0.0 1.0637720494870877
0.4487623021550796 0.0 1.4759231182326844
1.093097204608338 0.0 0.8033008412357492
1.1497193112096684 0.0 0.2677793489721139
1.2677930043051324 0.0 0.07693221192055953
-0.30214175795019477 0.0 1.3786668590010276
0.1362066365089321 0.0 1.3096153981128524
0.6425560014569126 0.0 1.336494372028718
0.9145186179815014 0.0 0.9796596869995624
-0.15115951954710016 0.0 0.5299961071193258
1.4709340763800751 0.0 0.7432457937698158
0.35526146658949187 0.0 0.2631479705046345
0.37085422728064676 0.0 1.3424184712796123
0.8058292733991188 0.0 1.4007989624825354
0.013840385690677805 0.0 0.05516528921052128
0.3771053142051078 0.0 1.432857512085722
-0.08873896552050511 0.0 1.3709484189993333
-0.4367851095482588 0.0 1.119184758885135
1.128054418800987 0.0 0.9400315355999851
0.11141496158679666 0.0 0.8461352105398247
1.5983511361911122 0.0 0.04981976119861276
-0.20191562129237883 0.0 0.8790906640548729
0.06050410876450178 0.0 1.4963322847466638
0.644257760767718 0.0 0.1578360977084486
0.2031951586685269 0.0 0.019810920020248986
0.12109572228560904 0.0 0.9785726100698517
-0.5212887249688949 0.0 1.313826714257072
0.023276862767470374 0.0 0.9907039050960813
0.5401436377809619 0.0 1.1630020351428212
0.5585710971829432 0.0 1.3991168248285204
1.0719943738578508 0.0 1.2310082334014578
0.8974004652792108 0.0 0.2729451667235746
0.0034122560566490216 0.0 1.5851394116582171
0.6648032385554852 0.0 0.2942934041744425
-0.7893515666256166 0.0 1.4206155712337414
0.04206788948979642 0.0 0.7849622945538957
1.1132785570380896 0.0 0.1331667930530435
0.8701129346904296 0.0 1.4019115405469802
1.315902617689189 0.0 0.880737920651799
0.09928081653983299 0.0 1.0519821645891372
0.8575053679023421 0.0 0.9510670937967062
0.3032434183971438 0.0 0.24935507497107
0.5380021562469482 0.0 0.5548397036243284
-0.09474885902165665 0.0 0.19453775881688315
0.3630736985818571 0.0 1.0052349797082936
1.1724704111480655 0.0 0.6782399847468594
0.054408985469318646 0.0 0.9924361718187258
0.6763550848999298 0.0 0.9461804901506922
0.523881007555227 0.0 0.19264814839643613
-0.12787022958939198 0.0 1.3699771639835134
0.914616423165831 0.0 0.6282730602585676
0.21945159457943741 0.0 1.4805771093646203
-0.2592760904688954 0.0 1.0031352551822854
1.333812959251938 0.0 0.0907139773610309
0.44961894772037886 0.0 1.2479936285974482
0.49017812036825076 0.0 0.44961271716753093
0.219189402358337 0.0 1.032564534414108
1.0914339842677776 0.0 0.16278915783932937
0.3309471819366364 0.0 1.4063650837858717
1.0542224440298507 0.0 0.6206532719616707
0.6898543206677981 0.0 0.2626372579624089
-0.3661788281664206 0.0 1.2235244078760243
1.008360828829472 0.0 0.1614775078430676
0.7116255862499351 0.0 0.5469958583297725
0.880965081190469 0.0 0.35454251165236467
1.445391228333418 0.0 0.759767937214883
-0.6024229928025793 0.0 1.0848885299126285
-0.23781496889193096 0.0 1.568572614059597
0.7703604205353743 0.0 1.2890238897755457
0.3117554744223242 0.0 0.3101797192138269
0.633210021886867 0.0 0.32129960962620996
-0.03455988090744985 0.0 0.4148817330231572
0.6459625462676072 0.0 0.349046949765596
0.30282701844846227 0.0 1.0417325298082765
0.7482564887521447 0.0 1.3661046353875301
0.32318714343097427 0.0 0.439304173507589
0.8015282702166777 0.0 0.3197211454481392
0.8923694841788248 0.0 1.1983755348625238
0.11974691155846381 0.0 1.2226679267139926
1.2824081402000829 0.0 0.9518532281722416
-0.19901901217787155 0.0 0.5227132288368067
-0.18451734135187606 0.0 1.3287261403382875
0.6994742342077523 0.0 0.9082276567679758
-0.15298546493045354 0.0 1.4902167945713123
-0.10260710213286242 0.0 0.33947890612837994
-0.46428848207009293 0.0 0.9368120539907373
0.6921136728288697 0.0 0.3905390526003032
-0.3579731565600757 0.0 1.096173171291683
0.4175203729414586 0.0 0.5416930064160544
-0.37636020538035697 0.0 1.3810947521283758
1.0068776004352402 0.0 0.40130791941770605
-0.5878576347529922 0.0 1.143895828835854
0.44752160930954293 0.0 1.0795955608788506
1.2140898308979367 0.0 0.8016779517795417
0.5223967465880506 0.0 0.028918671293474002
0.41957830510336214 0.0 1.0407710263359982
1.1384651004847237 0.0 0.8349451505823061
0.5153936808141247 0.0 0.9095335737016517
0.2925389738087797 0.0 1.3147057326216696
-0.47791593087264167 0.0 1.5206344886115406
0.6291876482267406 0.0 0.4988634799151653
0.9542678766279858 0.0 0.028302103719121317
0.42015563842562764 0.0 0.11750901110077791
-0.5128524636318407 0.0 1.097465391359724
0.7392122431078789 0.0 0.7837582581942839
1.1003854226853136 0.0 0.5632664891278172
0.1813034391060489 0.0 0.17202658867845885
1.0144829560962643 0.0 0.5052926967966714
-0.26083596276759896 0.0 1.0824082978219158
-0.27050684815618237 0.0 1.4319632711572559
-0.6525315601458289 0.0 1.2610692020277483
1.2423214391887998 0.0 0.5188242305615253
0.555430906452669 0.0 0.1935281237654551
0.3879785869891812 0.0 1.2964476342157139
