VERSION .7
FIELDS x y z
SIZE 4 4 4
TYPE F F F
COUNT 1 1 1
WIDTH 1106
HEIGHT 1
VIEWPOINT 0 0 0 1 0 0 0
POINTS 1106
DATA ascii
1.532830082541555 5.7 -0.21880483391546676
-0.17839974721691632 5.7 -0.26509981651210046
1.070570630461051 5.7 0.2753974851327223
0.1717374766883712 5.7 0.43616533014116665
-0.865598233651783 5.7 1.2613872362160368
-1.5712047694552784 5.7 -0.44363407491318463
-1.0021342176207053 5.7 1.072492055820623
0.4966317416325319 5.7 -1.5402229602557895
0.9158561212561473 5.7 1.3172345079803294
-0.7211895411897277 5.7 1.269832464669126
0.8819587782145251 5.7 0.8057450944464054
-0.21836881593070098 5.7 -0.5741223018216041
0.0023518910040430307 5.7 -1.6286098595013079
-0.5254779365193615 5.7 1.1313812018348288
-0.15703883469963584 5.7 -1.215578304797155
-0.7962737310793444 5.7 0.3617355442497021
0.4120959879807598 5.7 0.7511164367872099
0.2509427699790138 5.7 0.9872965404046878
0.41119141675724713 5.7 1.4636285234216155
0.6837362935830474 5.7 -0.20659639082503145
-0.6886786037757177 5.7 -0.442563791196735
-1.1715004170765246 5.7 0.4133494819298656
-0.4198259030921219 5.7 1.1844887921661602
0.06275477247445974 5.7 -1.6181597206547558
-1.0599406561294018 5.7 0.10164314049139958
-1.546670189216933 5.7 0.44540456896135716
1.4350208119523344 5.7 -0.4274736215377845
-0.6104601288530633 5.7 1.346670880395414
-0.017612815876566126 5.7 0.03293195951738336
0.8254454165249545 5.7 -0.39583778291527333
1.0794461315010917 5.7 0.5670661085186115
-1.3054158511596996 5.7 1.0050769538796889
-0.7275598984597285 5.7 0.6580978918011059
-0.4013055237848743 5.7 -0.296314880140369
-0.5577567178414522 5.7 -1.2936636721749635
-0.46936817226251126 5.7 -0.27086186857532885
-1.089131078975036 5.7 0.057113815732
0.4109686366502341 5.7 -0.2901911201164218
-0.613210888521733 5.7 1.1690587392549425
-0.07513958914871813 5.7 0.6626223126726409
-0.05957944913434262 5.7 1.29277008196011
-0.72179189372729 5.7 0.5284074526933487
0.9196363154811081 5.7 -0.1009935951533696
-1.4590700537139227 5.7 0.11523522909120784
-0.5974826206514364 5.7 0.33808260904511583
0.7431893329793214 5.7 0.8664504490536192
0.2126315683386689 5.7 1.0457925246089088
-0.3438845472121445 5.7 0.020871350184877947
0.06648137205720926 5.7 1.3817423354144172
-1.0848479233965127 5.7 -1.19382620292271
1.0649914300335226 5.7 -0.810243544716377
-1.0592046904365675 5.7 0.9470185371439567
-1.1191795121843369 5.7 -1.062713967894502
0.17309819287337933 5.7 -0.508914515470131
-1.026178763036211 5.7 -0.6283129412289262
-0.6761608154715534 5.7 0.7860462272492932
-0.8843119362497573 5.7 1.0675514759305833
1.0398420424361492 5.7 1.212124191052981
0.790604393221555 5.7 0.701450557976212
0.7207748288189554 5.7 -0.5462431288908226
-0.4687229227946901 5.7 1.1492944315049392
0.5788335693214893 5.7 1.5027921843865566
-1.5791229612484534 5.7 0.3629262430924637
-1.0785917579785207 5.7 -1.0591700935326525
-0.7446512041447565 5.7 -1.353489111543119
1.4176617344201017 5.7 -0.28423892812477597
0.37182535065958594 5.7 0.8705050075363762
1.5732737326612345 5.7 0.2503027827155474
0.872844679978887 5.7 0.4228258412895013
1.2053450153446577 5.7 0.9540612170265363
0.2085486487187651 5.7 0.43634006938427283
0.08584223462567905 5.7 0.36576438281585827
0.49098068349072965 5.7 0.5521122880360122
0.9208070414594425 5.7 -0.005350084451049418
0.9614298218321947 5.7 1.0958961947735664
-0.855648365543252 5.7 -0.6371818458544555
0.2686515926445987 5.7 -0.22772864725863162
-0.2791645251344154 5.7 0.4843303249477525
-1.4072497866511309 5.7 -0.7616882419666416
0.4410077456923493 5.7 -0.38217883892937116
-1.186228194875374 5.7 0.5353424570003836
0.5450004976635857 5.7 0.15747866238342106
-0.8094638471842878 5.7 -1.3716881351731711
-0.8478721196594471 5.7 -1.1689296338644455
0.29154445959463643 5.7 -0.9299351474565293
0.25988558218097496 5.7 0.339364452761493
-1.0657463908694529 5.7 -0.41187215263756805
0.3428859873915881 5.7 -0.9993823931425192
0.43689889998491027 5.7 -0.42535557788234796
1.1009350388009196 5.7 -0.4945677576877637
-0.899662238934527 5.7 -0.0031232769308779805
0.00247752029998568 5.7 0.35823074613014017
0.6693547135173822 5.7 -0.5912306827373289
1.5707996296600837 5.7 -0.06651366419799647
0.6163913199014596 5.7 -0.26593195617976656
-1.2797275863253892 5.7 0.9954124000244954
0.4179245530563423 5.7 -0.29465862021147127
-0.3723607929379467 5.7 0.8652371392872511
-0.20173348077631553 5.7 0.7106418747926516
-1.4233181802468016 5.7 -0.06963522715571212
-0.8067002841024393 5.7 0.3317570779216604
-0.1995699060261766 5.7 -1.3225741927242445
-0.8271479594052084 5.7 -0.5832400800817251
0.13003108717178763 5.7 -1.638686878892103
0.32948903514896716 5.7 -0.3184861356610891
1.5071597350888741 5.7 0.5327068037214816
-0.5341383049549633 5.7 -1.047833639882723
-0.4533650092177715 5.7 1.5407580021406213
-0.8813446477362153 5.7 0.9321415132601323
0.9133516926528888 5.7 0.3278030253525075
1.2450435291545952 5.7 -0.5371854984876123
-1.3331933464034886 5.7 0.8216398841724253
0.23985604821758794 5.7 -1.4845145722303479
0.1643734598810417 5.7 1.517886286424197
-0.7308409812180194 5.7 -1.3059706148406323
0.04667776748053582 5.7 -0.8757805326424842
-0.9549677866450239 5.7 -1.3435806930453786
0.6544913506559121 5.7 -1.0534390091245065
0.37205456284570537 5.7 -0.7648046734235953
-0.14748669114619117 5.7 0.26324538379789775
-0.28589473696369666 5.7 -0.09359986034373291
-0.5830719905887425 5.7 -0.9823236916661162
-0.5002247293756451 5.7 0.6684054994252104
-0.9725687887928907 5.7 -0.04853578039646368
-0.3684130566746187 5.7 -0.8359888236284294
0.1814635117847695 5.7 -1.4349174835802316
1.0861554357525738 5.7 -0.22186463969369905
0.7425717743814072 5.7 0.14535622057937062
0.26786804885452153 5.7 0.8000997357009207
-0.8160539116309427 5.7 0.6911789915256641
0.1828827646086959 5.7 1.3675371213086374
1.0187271052216047 5.7 0.3421167437620377
-0.19615411498781982 5.7 1.319529968206384
0.49212486190142807 5.7 0.7787555926441325
-0.3219488558718588 5.7 -1.4529221765950981
1.1625366115488185 5.7 -0.4657411071554291
-0.17753882694448325 5.7 1.2715716989868233
1.1525438578950742 5.7 1.1633968579408542
0.3075977518830267 5.7 0.5127524095598636
-1.0150606052098794 5.7 0.889698687005649
0.0265471903695607 5.7 -1.2102559075974968
-1.2682117738947505 5.7 0.5276946912710198
1.0839729374015468 5.7 0.9520774134329442
1.270444963314265 5.7 -0.09988653409283678
-0.9165516700316714 5.7 0.9698784513542008
-0.14306549086356132 5.7 -0.32645936396393965
1.1959615171908076 5.7 0.9929837139454964
0.5174214700385115 5.7 -0.7974771111274342
0.41675681492631433 5.7 1.532760389389178
-0.763818063506726 5.7 0.38545924023983585
0.15735393370666956 5.7 -0.20712567079181016
-1.0664099594503742 5.7 0.4983233865702508
-0.3313733600702007 5.7 -0.04654141696283753
0.6689394429837683 5.7 1.0269555407016246
-0.3828440226774916 5.7 -1.2292237581475618
-0.621321141033118 5.7 1.1451201734015755
-1.1754921090871122 5.7 -0.11021487718610251
-1.634992738542655 5.7 -0.07577945658056216
0.057697379383491634 5.7 -1.0063169895332393
-0.7605259013115586 5.7 -0.5822431885427144
0.027774679054257803 5.7 -0.6689225292604994
1.1284803449942846 5.7 0.5325005088047671
0.3928229111165236 5.7 0.5014701038186185
1.3763625929809222 5.7 -0.44835177020602496
1.1588329220701024 5.7 -1.0896359368017854
-0.19200475448980206 5.7 1.2776208293611235
-0.5971687011646317 5.7 1.3873886123494323
-0.9592398147279888 5.7 -0.3135687246615791
0.5275895695069522 5.7 0.5557577963515233
0.07985532914149081 5.7 -0.7592423547001975
-1.041003217976091 5.7 -0.6713141394572144
-0.9971045002626131 5.7 -0.47304274536499447
-1.3657397823937094 5.7 -0.17180951404707512
0.5290644712449302 5.7 1.3921848166966593
1.2720949407944246 5.7 -0.8100584968281879
0.13417174760830206 5.7 1.5873059923132702
-1.022856200242977 5.7 0.9105195877728015
0.6458785452821032 5.7 -0.509153708787342
-0.890232899080361 5.7 0.38350704733967406
0.9070994227168259 5.7 -0.9943709042544013
0.7277273153005525 5.7 -0.2009787715218334
1.0582634237056792 5.7 -0.5300237126116657
0.46010334355996707 5.7 -1.1245654720206448
-1.1782863322434665 5.7 -0.8309851170107387
-0.744395893526664 5.7 -1.2109863177367655
0.6462486634053661 5.7 -1.299622635963104
0.4304220990835555 5.7 1.5663826871776558
0.7163754286907755 5.7 -0.4369101553145842
0.7862328738651543 5.7 -0.1431733718717469
1.5279654796060251 5.7 -0.3139241541272004
-0.6196853634204628 5.7 -0.7053914853341764
0.6027098422848954 5.7 0.6279663406679111
-1.3596003815024609 5.7 -0.14817588442524934
0.11914673786838507 5.7 1.479240448740742
0.5573960396782828 5.7 -0.13791487849567607
-0.06178993178129329 5.7 0.3933331281477955
0.09102267256109417 5.7 -0.22771877699018347
-1.2770839979329942 5.7 0.8569574669362027
0.7968177895213692 5.7 0.4629981934641059
-0.18272341430502592 5.7 0.6168793941489388
1.622789004283701 5.7 0.04111864378062309
0.2818290996678461 5.7 1.0836732225805534
-0.2734388943389311 5.7 -0.6420292642680052
-0.27635079931976264 5.7 -0.44988176301760774
1.27905342323739 5.7 -0.9326687246327799
-0.13024482288640357 5.7 0.8948155795561262
-1.2942032646136972 5.7 -0.8815260443409396
1.1284991245588532 5.7 0.2374176183505292
1.203916114312361 5.7 0.1755594595522605
0.24483880095677768 5.7 -0.2972575332336449
1.0559687670006865 5.7 -1.1685807321698993
0.025887048284939717 5.7 -1.264212586862512
-0.44317283353754383 5.7 0.17615778493852588
-0.400541059105175 5.7 -1.412543743895557
1.432602307164758 5.7 -0.3720133861754427
0.8128999019645144 5.7 1.1676916274744837
0.4025349554521416 5.7 -0.8290132870933732
1.014626619429274 5.7 0.7075278770012835
0.9773020099624588 5.7 -0.6839429081336901
0.9306023870988821 5.7 1.0326087585882118
1.585011210795673 5.7 0.15181087223968792
0.7432797533761454 5.7 -1.0536467731780972
1.411345082890435 5.7 0.7098219540111809
-1.5997385841258127 5.7 0.3639148824424823
1.061437838012394 5.7 0.29648866198760837
0.9841233744403984 5.7 1.241313269476714
-1.4552357250707755 5.7 0.07174163976640238
1.1246866639863793 5.7 -0.9601690800878819
1.1374963724628009 5.7 -0.4537716200485467
0.5750440489033296 5.7 -0.2859924824928654
0.3387392910966113 5.7 -1.3983773368967851
0.6610459520545902 5.7 0.8274625865050119
-0.08780237322549495 5.7 0.27065072930104056
0.5699780179003152 5.7 0.5454068690301523
1.412174414208186 5.7 0.18897159222950768
-1.1233165622991734 5.7 1.1832362372286667
-0.8248028310384977 5.7 -1.0915876792455617
0.4727067532955175 5.7 -1.121731488055413
1.5201485391498069 5.7 -0.2474042277298387
0.39067126484414555 5.7 -0.9151562846163923
-0.3586905555489842 5.7 0.7183900924268842
0.3877781698018227 5.7 0.07158141674628749
-0.5833405409006048 5.7 -1.3980864009273573
-0.663685603990071 5.7 -0.808870745432111
1.0602535130259072 5.7 -0.523649838849589
0.8787350822383877 5.7 -0.9899239955340955
0.5230170905475303 5.7 1.0097375917954214
-0.3652657312361756 5.7 -1.0562663164308055
1.19518396073581 5.7 1.0983942565377982
0.23277290000687367 5.7 0.8673566115140898
0.38114595655514916 5.7 -0.5556240214460598
0.6776891247446101 5.7 -0.901729995868166
-1.1733338372809672 5.7 -0.9577332540834714
0.3482415783551498 5.7 0.8529519357089168
-0.3429468101590421 5.7 -0.15044566037957058
-0.9631126265676888 5.7 -0.566144356537901
0.9740763440655852 5.7 -0.3730559753583859
-0.5385677206456569 5.7 -0.8141116066495402
0.6567091901668481 5.7 -1.2575958522620962
-0.8614600384962253 5.7 0.9168288039932845
-1.3901742535069308 5.7 0.03120730849664261
-0.7474589395597723 5.7 0.2441348858553255
-0.17750757943576956 5.7 -0.8615351110444455
-1.5132102619788104 5.7 -0.058995385160270246
-0.26356653217053705 5.7 0.7431996480018492
0.23711190478242053 5.7 -1.4282124514180397
-0.22614196522933827 5.7 1.2399470769198242
-1.471935394712009 5.7 0.05995626561979414
0.7993567909125207 5.7 -0.5896060397199647
-0.11551800349264439 5.7 -0.18354072512804873
-1.1118092638856365 5.7 -0.7198631947788204
0.8072028267089221 5.7 0.8106757670285154
-1.406761356718598 5.7 -0.8162398083723778
0.13388298149619718 5.7 -1.4073289803379885
-0.4893973254494386 5.7 0.9099860753436401
0.28215580776041593 5.7 -1.112859438598917
-0.4346382480805504 5.7 -0.18854778790434656
0.7356310751664897 5.7 -0.7096997863216937
0.041889158883030526 5.7 -0.9880252539269855
-1.0389810693795796 5.7 1.2729226811656105
0.37799030522294536 5.7 -0.027672688514725804
0.24641323349326155 5.7 -0.3103585875725047
-0.08422010098851426 5.7 -0.6763934976349821
-0.2489236953440897 5.7 1.2776407376985484
1.506785248061252 5.7 0.46681312411489817
-0.4147916157588228 5.7 0.5892581830576608
-0.7022893888257788 5.7 0.4418066952687777
1.1721361971450972 5.7 -0.7363509921945688
0.3530630643126438 5.7 -1.2687133169669984
0.4963642599078856 5.7 0.5506241470527217
-0.9061882575365292 5.7 -1.0358804748507613
-0.27134995311909454 5.7 0.011493206700223288
-0.042467746160260764 5.7 -0.1486219096666341
1.0142411897732997 5.7 0.7719386694611278
0.9458175356598246 5.7 0.6600914961528047
0.67994925738904 5.7 -0.42489007606263707
-0.9907786267579993 5.7 -1.013957342524117
-1.2614071300891452 5.7 0.864408094111705
0.22811976506584786 5.7 -0.3160315416065792
-0.3621072414062184 5.7 1.010141525935562
0.18952942371275924 5.7 -0.9239571526718582
1.2623429218392541 5.7 1.0394741750899286
-0.991021939844584 5.7 -0.9910431427067149
0.07384145309575563 5.7 -0.3275383022578533
0.6916217570948222 5.7 -0.8031792155627938
-0.40516696958098575 5.7 0.8018135450864046
1.4187659949580587 5.7 -0.11199231270797694
1.5200014102263737 5.7 0.14243521816873483
-0.14370668101060843 5.7 0.001730636181466079
0.9144044675611084 5.7 -0.9321984209036822
0.7703664024321664 5.7 -0.2564576971023754
0.18462293780014882 5.7 -1.1127886803942764
-0.9266419397113346 5.7 -0.20274433806374662
1.0597531448682793 5.7 -0.45321783699478513
-1.366322204342128 5.7 -0.2117534960984297
0.023461993445391526 5.7 -1.1236031230264634
0.9414423679413385 5.7 -0.6334349503040451
-0.3073560912939853 5.7 -0.02842012750553144
0.2914090532976595 5.7 -0.21542907447426599
-0.04980512816118317 5.7 -0.37413567439034706
0.07384410434508386 5.7 -1.1022275839168214
0.4387939083024369 5.7 1.5371602123993398
0.6274818928810301 5.7 -0.917843005274528
-1.0073020507618715 5.7 -0.2293444870939463
1.5238275396783247 5.7 0.14397502514382426
-0.6698391637411979 5.7 0.5413933207878626
1.3261417831620441 5.7 0.3691299777889198
-0.9273095770563929 5.7 0.9812033134414769
-0.9948121332948199 5.7 0.8922529729846332
0.814845707660122 5.7 1.177191660825954
-0.1680753878265606 5.7 -1.0349305868593062
-0.47588749645637624 5.7 0.2485665871372303
0.34639781885766346 5.7 0.13623347510496112
-0.96571132539637 5.7 -1.2235583911802377
-1.3408886609647082 5.7 -0.8370947683765657
0.21583050000195278 5.7 -1.4716182172051901
-0.6235782548578409 5.7 -0.34449020997751034
-1.5238933066830687 5.7 -0.3738077786648736
0.4709501328255563 5.7 -1.1584120365795991
0.0011035857439762944 5.7 -1.035764933640772
-0.025376064494355182 5.7 0.8174960111032714
0.2553771776263568 5.7 -0.46831946110155276
-0.3310929914145389 5.7 0.06618449677238333
1.1096638774841532 5.7 0.6998812481456559
0.2354067953624103 5.7 1.5217764915413072
0.3562352127144482 5.7 -0.4680408706244714
0.1997631949261197 5.7 1.364654850712482
-1.268608308936127 5.7 -0.5209833260501043
0.009785212612013879 5.7 1.0608276201289213
-0.9997230634819397 5.7 -0.30490862513832295
-0.706415053053576 5.7 -0.49796492449790686
-0.04928953190311473 5.7 1.3552177593537933
-0.18319442053164997 5.7 0.01262181593398036
-1.057903283927931 5.7 1.2143848079713666
0.4744701220914895 5.7 -0.4827837352240198
0.3621919521970704 5.7 -1.0132245944739984
-0.9564144651499458 5.7 -1.238658450571464
0.670780948844968 5.7 -0.32224825947269936
-1.1787602165650657 5.7 -0.41270289292539397
0.6918390861742109 5.7 -0.23010932612893034
-0.1990365815280423 5.7 0.4196497152825317
-0.25191854172128186 5.7 -0.7443177509362553
-0.7478806644723185 5.7 -0.3717291614072411
-0.20914802055526407 5.7 1.1324717527964243
0.7270571436781225 5.7 -1.0277462152239614
0.6367916701514087 5.7 -1.1549007591331297
-0.028813014978916994 5.7 0.39501480208621537
1.193153937523397 5.7 0.5445990241474319
-0.7589634164057195 5.7 -1.2793598536805866
-0.8660879270830851 5.7 0.3312098876680293
0.6926386924980359 5.7 -0.6689952135318126
0.3207991145695119 5.7 -0.9164554754881905
-0.22303947263674953 5.7 0.8982119820616127
-0.7142358582934835 5.7 -0.1696391383250898
-0.060344109436318905 5.7 -0.005767788443046124
-1.3198806945414703 5.7 -0.8825837177429557
-1.3535133478260482 5.7 -0.3919892937191533
-1.475456829743976 5.7 -0.08131041806355803
0.43884699541573385 5.7 1.5808251786615208
-1.2815559430475174 5.7 0.023282340562759123
1.2756106598254602 5.7 0.8687322686137037
0.4886367891292028 5.7 0.6269459480092978
1.2573412156420105 5.7 -0.37525008172176666
-1.2694251026979895 5.7 0.007067900153238332
-0.20569134052882954 5.7 -1.3532515838231085
0.1641273050086515 5.7 -1.050530639330091
0.820079502254152 5.7 -1.06864398648128
0.38459185235097504 5.7 -1.4528731068498557
-0.506180971597274 5.7 -1.4436318004976767
-1.0157558182258912 5.7 -1.1818441249269915
0.3540431219858526 5.7 -0.2672551305715844
0.8294105470193692 5.7 0.4376873297232067
-0.26097461534877464 5.7 -0.8828518019214933
-0.38043929975032753 5.7 -1.5445405905657876
-0.7332002408818559 5.7 -0.8515599784642534
-0.5581785575718324 5.7 -0.28915067610159967
-1.091139070089168 5.7 0.040052835661451895
-0.18228309214840618 5.7 -0.635017505761047
0.031626644377980836 5.7 -0.26248409582946114
-1.4883735991268305 5.7 0.5560756247996856
1.2671515988654654 5.7 0.04020111759862403
1.2540924454275564 5.7 0.6586887834265543
-0.47543215398175276 5.7 1.002865142348235
-0.369269575982822 5.7 0.2779451535588886
-1.2388305397919064 5.7 -0.9385698040886618
-1.1443645047067272 5.7 -0.26169830640566577
-0.26403635299465333 5.7 -0.5799925505014323
0.4658044237356338 5.7 -0.7829334575879322
0.39403504867380795 5.7 0.8019168308211769
-1.1755260276623083 5.7 0.304203740161274
0.8049299129245067 5.7 -0.3129584960788431
1.2496991677030482 5.7 -1.061503332905059
0.8035075538791039 5.7 0.6218776406838682
0.6648363390050833 5.7 0.8720620426467703
1.6053978113414267 5.7 -0.04371905198252337
1.1731743753482156 5.7 0.22279951794041084
0.6786250318558397 5.7 -0.4553006583228331
-0.2995446281197365 5.7 0.03298195617484287
-0.6187848025523085 5.7 0.061845318943708885
-0.9362517667607133 5.7 0.32754913380889833
0.32348872694356257 5.7 -0.7710093569906605
-1.3508615427053325 5.7 0.8042406825171677
-0.8037012789313044 5.7 0.4087865726581474
-1.3421568807359074 5.7 0.5934098859445428
0.5277237443361826 5.7 -1.179406253416047
0.4589468058818527 5.7 1.117845520302646
0.5065484525610062 5.7 0.7108346613437274
1.5427580529772733 5.7 0.19077584538696868
-0.47234494133436594 5.7 0.6146065672711221
0.2960539685526611 5.7 -1.4102700412944287
0.30024204342066385 5.7 0.43634080042129525
0.4288204924672921 5.7 -1.316082016213271
0.6330104686533742 5.7 1.383501273515413
0.3697869496472272 5.7 0.20324135642388966
0.05970665970354769 5.7 0.7274043139580975
-1.2247231683911752 5.7 -0.5149566549900065
0.6634782195092159 5.7 0.6700495263421348
1.346492623880196 5.7 0.9312497654502843
-0.4740224294384813 5.7 -1.3936464673595834
0.03955352968795925 5.7 0.17053136943024008
-0.18328835150625641 5.7 -0.16146333114850675
0.658866807532969 5.7 1.204960012147109
-0.3328297014217943 5.7 0.05886631522362775
0.5153365014841923 5.7 0.8447853762394811
-0.18456918038460363 5.7 -0.889431709973832
1.1113235624739706 5.7 0.919548247483093
0.11881107096575341 5.7 0.2740346897798962
-0.2321333394913132 5.7 0.6453952285510779
0.03967786702562597 5.7 0.604041706483162
1.5226817725121733 5.7 0.1731213936613621
-0.685572516977819 5.7 -0.5269519620348462
-0.8106231330073601 5.7 -0.7048619055023632
1.1630050633823912 5.7 -0.8251695582127645
0.946725885853338 5.7 0.15344704005038778
-0.45140656078600894 5.7 -1.441240013580684
1.1527599359836185 5.7 -0.4587442121165989
-0.6766569372006326 5.7 0.4556697175589581
0.9829947094306803 5.7 -1.22721561172684
-0.16168224424636957 5.7 -1.3643367394191939
-0.5015735815696091 5.7 -0.465140822357399
-0.4084135549695309 5.7 0.10181367962804681
1.0220452752684606 5.7 1.0838811951308935
-0.16132824598646553 5.7 -1.0838623610751785
-0.03695461516928689 5.7 0.8210538776780905
1.436667901916431 5.7 -0.001965256017238518
-0.500678181941838 5.7 0.7694176727209016
0.09346074262937314 5.7 -0.9222798578590287
-0.4949112372206504 5.7 0.6819901315153373
0.9825253747787486 5.7 1.1656171404892277
0.5624866234074554 5.7 -0.4176260559904488
0.6629544037062394 5.7 0.3560053093605923
-1.5313822322115165 5.7 -0.4084920119536695
-0.7922902167915117 5.7 1.3043733260369517
1.4758050972162 5.7 0.027336580555807254
1.1973490107992741 5.7 0.6243381433255473
0.5236894553232233 5.7 -0.6149409432210932
0.9011030683078278 5.7 0.37262462714556754
-1.3832316422205344 5.7 0.4358442079442872
-0.2887523989353157 5.7 -1.1786974459948365
1.2871600793526328 5.7 -0.5332113099390015
-0.26287785846650813 5.7 0.7748134671193392
1.3286549607595979 5.7 0.08767705545113666
-1.2482591963315466 5.7 0.5463142929720401
-0.03398465694508508 5.7 0.6665677572100636
-0.5975589450989947 5.7 -0.9636803506543147
1.0392390783124976 5.7 -1.2490062048797625
-0.520808222887638 5.7 1.465118050978232
0.1640470572446468 5.7 0.2314779175473118
-0.8800614294425939 5.7 -0.7136178190778973
-0.6700647376643315 5.7 -1.371491790556324
0.24319029543301296 5.7 0.9131283222342085
-1.1962400994565774 5.7 -0.3218699582782549
-0.10303820589931953 5.7 1.5172755193456853
-1.3702061756592459 5.7 0.20284932992478047
1.0815919287821996 5.7 -1.1126370557296132
1.162827065845621 5.7 0.9709084115043342
-0.7136832763819406 5.7 -0.13956835230700798
-1.534808493933149 5.7 -0.11076936710237205
-0.8172289257634964 5.7 1.1773503116592132
-1.0286895515596517 5.7 -1.1034422501725116
0.3513327001021155 5.7 0.14960495700899695
-0.14243235280564395 5.7 0.7126201302846574
-0.6500452424681419 5.7 -0.5493920614284655
-1.1513664336247906 5.7 -0.8181664884556099
-1.3582826701262154 5.7 -0.09060579607318507
0.12581349853304583 5.7 -0.505136287739469
1.453547587027805 5.7 0.7284101245955946
0.02701307491286709 5.7 0.3619855140459329
-1.0317519429650026 5.7 -1.1180565319962257
0.010209408818664395 5.7 -1.3109688429180488
-0.367763804745389 5.7 -1.2241451846254143
-0.4689115556131049 5.7 1.4066207366308208
-1.4166602788194596 5.7 -0.3401542722093257
1.5855477967137037 5.7 -0.07330890960642797
-0.4931122769668488 5.7 -0.24955384854968096
-0.09853070318530638 5.7 1.1793783924315775
-1.0207253312447557 5.7 0.9173558358263523
-0.5998998582918179 5.7 -0.796393067500512
0.557085292721879 5.7 -1.3242278054636576
-1.040385384319113 5.7 0.2819601715226479
1.2651516449274562 5.7 -1.0413387713879472
0.02796402482329373 5.7 -1.4129328033167472
0.9782254799195351 5.7 -0.3165553179129941
0.3516498182630759 5.7 1.2937097012165213
1.262906808843973 5.7 1.0330644548965378
0.27789670657434096 5.7 0.4015690218580916
-0.606660700674986 5.7 -1.510596011989751
-1.5778528395425098 5.7 0.22763009763129946
0.5935668477439399 5.7 1.0995940083437483
-1.0565843606298932 5.7 0.551047715410431
0.7566538531421472 5.7 -0.3273586192484374
1.142486134618417 5.7 -0.43559196041383225
-0.3832896587270331 5.7 0.9692613542096052
-1.002381629190606 5.7 0.11864062188929025
1.128573738855718 5.7 -0.2441517805422532
-0.6230764142479422 5.7 0.3216251447435337
0.3906359662945088 5.7 -0.26462953072542783
-0.13443384912072406 5.7 0.2635311156808273
-0.39145919258519496 5.7 -0.07877328619456107
-0.9484536764315022 5.7 0.5265149571589187
-1.0511677034929408 5.7 1.0530361680976619
-1.0611139583998601 5.7 0.47351541229866
1.1213547932659609 5.7 -0.981071892903561
-0.4881812435318851 5.7 0.5435247177014625
0.5972590883956395 5.7 -0.4204556859083822
1.3120231944860776 5.7 -0.06434219751724436
-0.1331927377453189 5.7 0.1788211292205533
0.496116532013727 5.7 -1.493350451422268
-0.5744400793951632 5.7 -1.5053679858641626
-1.0706266389041845 5.7 -0.1418624378173092
0.9924776650180699 5.7 0.6989855463920651
1.1547424151556596 5.7 -0.7147841178944127
-0.839425056680701 5.7 1.3375236809196094
-1.2696960885673936 5.7 -1.0262373967449825
0.048792597427730705 5.7 0.20171815795845924
-0.012885162063480525 5.7 0.31798611558068063
-0.8312329010629141 5.7 -0.11686506192525747
0.4218992858581219 5.7 -0.4421735662630121
0.2793779447547427 5.7 1.2333954458187446
0.6091382845841063 5.7 -0.21144384420520593
-1.5542643881971578 5.7 -0.45548901593646773
1.6271026714477603 5.7 0.027883291045220564
0.49150474857424425 5.7 0.9598720483905507
-0.2955138316071793 5.7 0.05311716961388231
0.35337131275448075 5.7 0.41977545899825736
-0.7932897713871653 5.7 1.428084204977599
-0.7534893001661165 5.7 1.163656148849454
1.1128714565612279 5.7 -0.9049379052908049
0.3015457924167565 5.7 -0.9434875549281017
0.00980021772758886 5.7 0.9666060534901635
1.5455302019880188 5.7 0.5771839338885022
-0.3400389682641606 5.7 -0.054408955862136885
0.7899651845996674 5.7 0.4559289339957573
-0.2917549123874422 5.7 0.16382884341595974
0.5247953512141013 5.7 1.3910122181421103
-0.8642665617499368 5.7 -0.9823845732186116
-0.525715199297185 5.7 0.8142810920818345
1.0174771473930015 5.7 0.16896942871075363
-1.0244883051233513 5.7 -0.4769894331323636
0.05690625491649061 5.7 1.0870111388792367
0.5214245634979863 5.7 -1.2721521419118176
-0.3587562541767916 5.7 -0.7572212223469651
-0.5626713826457678 5.7 1.4704314792852826
-0.42310396054860994 5.7 -1.1333554391957688
1.032469341179355 5.7 0.17520507949021863
0.940166069764888 5.7 0.3772164352899396
0.15854723770490872 5.7 -1.0640940666754302
0.8505739619160724 5.7 -0.31419331605449596
-0.9704974395788293 5.7 -0.28120163735143355
0.7546036687572283 5.7 1.1284238790793395
0.8867568638289306 5.7 -0.4587284368093222
-1.417012743515175 5.7 -0.5420169338155464
-1.002733497135688 5.7 -0.9802621159237707
-1.0161917360301493 5.7 -0.5277513170592025
-0.9498164981461716 5.7 0.870246187047582
0.5052867910343589 5.7 -0.2111718624209571
-0.2554388609018644 5.7 -0.6365542716539359
-0.9087997380741863 5.7 0.9358094247309123
-0.13238001575763833 5.7 -1.2973288500851563
0.5471911486561942 5.7 0.9521123075948563
0.9997698750458449 5.7 0.4039992188422964
-1.5002613749475247 5.7 -0.5127332187778929
0.6244772124958757 5.7 0.14045195956676906
0.003842079164514415 5.7 -1.1104862458598652
-0.7272703467561603 5.7 1.2176740171521991
0.6709754989026028 5.7 1.249669943697617
0.3595397012505304 5.7 -0.49791239938992704
0.8448712814950231 5.7 -0.19124780027243768
0.5565120951813182 5.7 -0.5946194410660894
-1.4313937256312241 5.7 0.591948536567558
0.4519322173203957 5.7 -1.389275322092494
-1.495218807657358 5.7 -0.14336835477449186
-0.6045649675281748 5.7 0.3758615597350107
0.2916210020433624 5.7 -0.8735284661879927
-0.13002756431949 5.7 0.16194299447270244
0.0894976096759516 5.7 -1.2051522145593088
-1.0624497005731877 5.7 1.1714872725308731
-1.4581143970058457 5.7 -0.36402272009351355
0.5100927703046766 5.7 0.5720936977645795
-0.21987051156380863 5.7 -0.9643410524721391
-1.4901665604105458 5.7 -0.49299351697619553
0.17159413857530623 5.7 -0.46728301929449895
0.450417992638824 5.7 0.5010330175992815
0.8609265039663104 5.7 -1.356836777350962
-1.1192308863036258 5.7 -0.36498144131102545
-1.2677730902503874 5.7 0.39287193658380554
-0.013146720722362486 5.7 -0.5508168365190619
-0.5996978707580398 5.7 -1.4513257815759484
0.41770760415872876 5.7 0.624157841468656
0.10123747768462082 5.7 0.30438716497566837
-0.13680201836565747 5.7 1.2008944458064028
-0.012074849378160045 5.7 -0.21497673451615554
0.013456765068890274 5.7 1.2371275389879528
-0.14896022659792488 5.7 -0.19879358261983013
-1.043469105499313 5.7 -0.40141454587374337
-0.20047317723486655 5.7 -1.2986014918644684
-0.027869027417203415 5.7 -1.216735133068334
1.3082498485221485 5.7 -0.11887313909790062
-0.9870218241825927 5.7 -0.8687924709929432
0.6163226568705176 5.7 1.3248361212127284
0.25980035057761486 5.7 -1.110189599721773
-0.21374120040276698 5.7 -1.2486965100690202
-0.5407985344019022 5.7 -0.5029522674658389
-0.13975277742693704 5.7 1.4612017037745038
-0.5827267189202096 5.7 1.0256751954356038
0.4079850609921116 5.7 -1.252243928625982
0.39336552232955413 5.7 -1.2713371342247195
0.45855251894101623 5.7 -1.047078647060817
-0.9503579137355883 5.7 0.21343665795817093
0.492447853340144 5.7 0.9040639693218167
-1.2412661675545638 5.7 0.2306767916979612
0.9256410569883999 5.7 -0.32427294901115433
-0.2582890952867359 5.7 1.1159770141355208
-0.5976769069623247 5.7 -1.5361645821581689
-0.7506783240641142 5.7 -0.2356964610864148
1.089835810554138 5.7 0.3061698614934558
-1.0506394631200207 5.7 0.08626161869052018
-0.19377945032190774 5.7 -0.7851111492575186
1.4153888863694968 5.7 0.24759118808563357
-0.27563702489966774 5.7 0.3302386848488353
0.7101739079826836 5.7 0.9706330896785718
-0.26921610592024714 5.7 0.6649252105009962
-1.4428295747866788 5.7 0.004284781113290955
0.9546862228007496 5.7 -1.03111271209042
-0.20727183502982272 5.7 -0.04586998284987856
-0.44709099264865376 5.7 0.9625131998689906
1.5089288202867013 5.7 0.39147498954473287
-0.4578898588934575 5.7 0.20469485420843983
1.2046351760615122 5.7 -0.8388143519554251
0.6040957787673236 5.7 0.06418825110159904
0.6235697665516912 5.7 -0.6567336510936944
1.3519209848292262 5.7 0.6481592299525277
-0.7544987805074684 5.7 0.6701390267913296
-0.3870636676297626 5.7 -0.40130133216493535
0.07587730239957884 5.7 -0.44604077544142123
1.2567464743485899 5.7 -1.0119984540680864
0.760413869961792 5.7 0.039457751996049915
0.7319816799823853 5.7 -0.00028295712817210056
-1.122114273406627 5.7 0.5986407129342864
-0.35289019033572294 5.7 1.3868720589200452
-0.38625377890417184 5.7 0.22486984557741138
-1.2314830283602642 5.7 0.9064681506919073
0.8739544606191849 5.7 0.00823720848527129
-0.8600456520550087 5.7 0.6148184725666028
1.361064442183104 5.7 0.6655094338728269
-0.7196111621038118 5.7 0.15004091142967285
0.9711091475433759 5.7 -0.6198380317473035
0.2521010341792957 5.7 0.8646195690699487
-1.0248975415083013 5.7 0.6064557211948359
-1.4754361734239436 5.7 -0.08468576589893276
-0.2004541541143005 5.7 0.17103371119007277
0.27355712811495353 5.7 0.9139475375270419
-0.29282951296339266 5.7 -1.3106464115164038
0.4159064894892163 5.7 -0.050037866213252416
-0.26517874632909194 5.7 0.36888924167474063
0.832298753998836 5.7 -0.6990526024937845
0.8061269694504049 5.7 -0.5896049365614527
0.39265748344210183 5.7 0.2181481712561162
1.3082540554408009 5.7 0.08548327038835579
0.39467086022092884 5.7 0.3216727284469684
-0.3949548246501885 5.7 0.5937840628656786
0.7568736433063844 5.7 0.7848774571848594
-0.9930030810292231 5.7 -0.31127966249046524
-0.3100144049640182 5.7 -0.010271043202519821
0.7721178371664826 5.7 0.7412896455571396
0.26605479675830973 5.7 -1.5002965158858137
-0.6812057466088556 5.7 -1.0127300751239912
-1.5144181739328293 5.7 0.3973164373910101
-0.5962590556275684 5.7 1.0254792874427
-0.6398038397786932 5.7 1.5038423814576742
0.592383649592347 5.7 0.2861089303825493
-0.9422719572815371 5.7 1.1277669525066176
-0.26812675236369676 5.7 -0.30224783066526006
0.5874518983491238 5.7 -1.0105975925481971
-0.8619089521319934 5.7 1.231021212513772
0.3231690828703768 5.7 -0.4146206176776056
0.12440067016819532 5.7 0.3830939454024007
1.5025360997722883 5.7 -0.007819648781588603
-0.9324778299293229 5.7 -0.4305059181823093
1.0879762725773257 5.7 0.7619179794424937
-0.24137845412032952 5.7 -0.7844523195046881
1.1765067934525917 5.7 0.12961867006688896
-0.2236077061608086 5.7 0.25447704059882953
0.3662171998419038 5.7 0.9249209423261912
-1.4485521303979136 5.7 -0.145765929857871
1.0295518245084563 5.7 -1.217267678113837
0.3334717210275589 5.7 0.15928123889537188
1.1005378776699664 5.7 0.1169405947098956
0.9721730176002682 5.7 0.9262889274449513
-0.9400663188267574 5.7 -0.7730625454503454
-0.5689971659236208 5.7 -0.6668406246722111
0.25813485782146994 5.7 1.3927321141977158
1.090169812331684 5.7 0.271479305468506
-0.6903647567599634 5.7 -0.5165193762994136
-1.2668811258110917 5.7 0.49402244165968673
-0.23114771561158573 5.7 -0.2000843993132804
0.7681374886543099 5.7 0.6019482281059565
-1.08678174886645 5.7 0.296793926187582
-0.1219415531871443 5.7 -0.5619054623962018
-0.6310897677770987 5.7 0.07891326314636811
-0.39069072638446933 5.7 1.076239486193991
0.7306585834891284 5.7 -0.7991296023013349
-0.8554345728187011 5.7 0.9815356322243549
-0.17729102528321594 5.7 -1.1458826883651452
-0.213776525058135 5.7 0.6563565524764086
1.1744881382742933 5.7 0.2763151843263456
0.8677706844454787 5.7 -1.1302818548003513
-0.3979493610720133 5.7 0.27611575421233975
-0.8255749935398324 5.7 -1.2846277231130352
-1.0279618448698185 5.7 1.043044920257162
-1.0403201916953384 5.7 1.2441175863401803
1.2541689724621126 5.7 1.008575220348689
-0.18806951488247012 5.7 0.5640451854041632
-1.083403030653629 5.7 -0.6451057546877512
0.6197670264599454 5.7 0.41993080158943297
0.8927067528877143 5.7 1.082339944805392
-0.7939449764838189 5.7 1.4087755391843022
0.47232782747584906 5.7 0.03614336118778918
0.940464001172754 5.7 -1.0228947757545024
-0.6400781073011883 5.7 0.9971153669251318
-0.303779294969647 5.7 1.3701258805403003
0.9077975934199118 5.7 -0.8947351571215723
-0.36695115441601595 5.7 -0.37351339416287743
0.5676308436539882 5.7 1.204290842330935
0.051744318118463126 5.7 -0.10654714926202292
-0.6696747293205854 5.7 -0.02760329109897992
0.10147986337873754 5.7 -0.8076683955364069
0.09177293445758314 5.7 -0.39944415535461775
0.7203247053682192 5.7 -0.5339242211660673
-0.06688489373144785 5.7 -1.0453535220445873
1.1896256587654384 5.7 0.4830431503477632
1.226326629033957 5.7 -0.795399015409694
0.08735805055692009 5.7 1.6359376681569684
0.5031923337778312 5.7 -0.3298838347066481
0.8209787104567228 5.7 0.4951424111356241
-1.0131666764564042 5.7 -1.1128374428166525
-0.4060823202747775 5.7 1.3438022222532153
-0.5722196764575844 5.7 0.5410228210850729
-1.2680181407141795 5.7 0.26969610616356954
1.2585695502284915 5.7 0.026888255753441677
-0.7536620660922425 5.7 -1.032460204880577
-0.6636428323691412 5.7 0.912245535609383
0.9176767821688787 5.7 1.1337764598691955
0.33922468905009584 5.7 0.9860302178086202
-0.037066714506658174 5.7 0.7233213599704231
0.3757348671627807 5.7 -0.6034808589858808
0.6617834434503636 5.7 1.3295004991860078
1.372477065926216 5.7 0.04893041170556775
-0.14126415392444253 5.7 -1.5429454030843832
1.2776688493113526 5.7 -0.22748327740264454
-0.49849933373246097 5.7 0.7997700425718463
0.06491788275009684 5.7 0.27507988770614317
-1.3232734495215386 5.7 -0.23566986174793528
0.08080190924206795 5.7 1.6425404308583806
-0.21781545325596297 5.7 -0.7380607204119054
-0.7840510058235409 5.7 0.05302028838398931
0.2605136183970502 5.7 0.4212507624553481
0.4171289701564539 5.7 0.11918013898680056
-0.9351773472381114 5.7 -1.3111250482813495
-1.3137073367836445 5.7 0.04207097691371273
-1.6129442118646504 5.7 0.19557123194651524
0.7749399145671452 5.7 -1.3145556583557652
0.2099636851392471 5.7 -0.6015980864506734
-0.8128433095719069 5.7 0.37617236597690284
0.40189513977265573 5.7 -0.1351457460394817
0.5307225054891126 5.7 -0.6807529383027546
-0.18732969025699042 5.7 -1.3360035083467925
-0.8664893736189363 5.7 0.4214278006661715
0.8234008058501957 5.7 0.6668443031903899
-0.6091262106063988 5.7 0.37799429524584954
-0.6990406746306884 5.7 1.1026542056080342
1.0091624171610112 5.7 -0.38839589725607443
-0.710707973480708 5.7 -0.26580441223180845
1.338721226252831 5.7 -0.3098577346843062
-1.003053793702338 5.7 -0.38957975828970914
-0.9074357112092316 5.7 -0.6946166384448752
-0.2485243785041886 5.7 1.4258112268654526
0.4642270701866796 5.7 -0.14996082319997253
-1.4614532365332549 5.7 0.47036820813416513
1.0303019357645968 5.7 -1.1714947719975046
0.8996889482187341 5.7 -1.1085436226793461
0.2947873000292972 5.7 -0.5720520760965013
-0.24212792079058246 5.7 -1.5015511592761561
0.1671300187449366 5.7 -1.3708388942523035
0.5929397834672177 5.7 0.6877973133856923
1.3553339478065354 5.7 0.002852461946148196
0.14390058024723976 5.7 -1.1795399753909837
-1.3838313493644148 5.7 -0.5792631563253684
-0.37308425473338913 5.7 0.9808934834510176
0.017112423894649835 5.7 -1.5247863999645719
0.8596462163441474 5.7 0.48742508136470813
1.0555765187917097 5.7 0.11094472465138788
0.17658427500172408 5.7 1.0564625833316816
-1.425873191423557 5.7 -0.7235151682662174
-0.2177845934887659 5.7 0.1570239126445185
-0.909410265737535 5.7 1.2061229374499665
0.7477463798785963 5.7 0.860889960846891
0.7569077311921972 5.7 0.9449504115570013
1.1547846598000655 5.7 -1.0539210769442602
0.6991787610580806 5.7 -1.2683498636878712
-0.405812320573042 5.7 0.447064676321952
0.6930989072497376 5.7 -1.2366683166854011
1.249318571983494 5.7 0.39167047554919837
-0.8991515774850903 5.7 -0.41731283776205785
0.7256072540341608 5.7 0.8966594848167189
1.0369247617888588 5.7 0.8106327901722168
0.2328294288284479 5.7 0.2591898273619391
-0.7012576088863622 5.7 0.11662968063474703
0.8734143804010023 5.7 0.5297558222166191
0.890956295879273 5.7 -1.2613388944699038
1.2282808001363774 5.7 0.9849901412514531
0.25938838224768923 5.7 -0.6021811837592163
-0.8416444615683775 5.7 1.369114740369553
0.027559151613190357 5.7 1.0185573969368675
0.5301691823846406 5.7 0.5737449353137248
0.5140237688689752 5.7 0.2160212158726957
-1.1656778498490588 5.7 1.127981966424389
-1.2185850152704651 5.7 -0.6261177550050193
-0.9544167713120666 5.7 -0.41420378043775874
-0.7636824204096047 5.7 0.49063018578313367
0.2505934024700452 5.7 -0.24864425324971143
-0.04999359536122171 5.7 1.102000283791845
0.021740890443316594 5.7 -1.2633172965175936
0.2633862994536454 5.7 0.6976705084026368
0.3901965841785761 5.7 0.25659045922257717
1.3730516132118074 5.7 -0.03035489132449475
0.5957288221766501 5.7 -0.4209778023133142
-0.651307642511323 5.7 -0.2812831340151758
0.7664938965530269 5.7 0.25575624996058255
-0.6068252139804846 5.7 0.2807303350752189
1.0750273801965635 5.7 0.9467830361071137
0.3199799759524659 5.7 -0.6920462372967419
0.19899007984917383 5.7 -1.2950963262456336
0.3145198204066075 5.7 -0.7370198732862007
-1.297881147424937 5.7 -0.7930843993244557
-0.9230963605523883 5.7 1.3248202568351706
-0.8207065359929524 5.7 0.3498520869569609
-1.0158482934397777 5.7 -0.42670958805407777
-0.3774791700732474 5.7 -0.9217236965611791
0.6754281171699069 5.7 -0.657455869928027
0.049991671851035493 5.7 -1.1163647723816992
0.2794953989307617 5.7 0.0387170750769692
0.9016622000189556 5.7 1.377433288255726
-0.7260677140851219 5.7 -0.9089949968477071
1.2989955492648646 5.7 0.44267424072797384
1.2135429264725832 5.7 0.08044521445743727
0.9851466940505369 5.7 1.2259668401778914
0.13750065772096312 5.7 0.8868655010942568
-0.7101954845211657 5.7 -1.2476730863923555
0.34850824463394386 5.7 0.1467959305424352
-0.45289521369985125 5.7 -1.0948235744680554
-1.1320095011721873 5.7 -0.41436291574215
0.5118491989568907 5.7 -1.230875437169384
-1.3494683412061246 5.7 -0.792763485990587
0.06224962666572317 5.7 -0.8934199371923395
1.2695313145322997 5.7 0.7865356035006402
0.5074588122969057 5.7 1.2466052281821285
-0.15241710938903194 5.7 -1.5252026829617236
-0.26051928522067974 5.7 -1.209899063862644
-0.7252018666309579 5.7 -0.3635398855385741
0.835097112355147 5.7 1.306646396625051
-1.0732011978379443 5.7 1.1808782045788133
-1.0732086400688448 5.7 0.24992585142646856
0.029717256522169153 5.7 0.5020386245683884
-0.7864725460989944 5.7 0.7751679347749058
-0.4102933095339022 5.7 -1.3738763261092382
1.32318228855645 5.7 -0.9286856363369316
-1.2000550488171609 5.7 -1.0694457870753744
0.4516827927470039 5.7 0.20368364319765148
0.8303088415818707 5.7 -1.0558672377118292
1.3485305981748124 5.7 0.03829775040611749
-1.2957606738220944 5.7 0.15200448021292287
-0.035041065101587374 5.7 1.136825260250851
-0.17225204493389745 5.7 -1.341238389655359
1.0756954919681103 5.7 -1.1540911295793508
0.8364353900999998 5.7 -0.798697037964622
0.27676549235115966 5.7 1.5673733051646443
-0.14294457564429555 5.7 0.7220322800422537
0.9581608304453128 5.7 -0.4494753704643751
0.351486665464111 5.7 1.209795449606615
1.1921527845538904 5.7 0.7443256585005044
-0.026653169844552058 5.7 0.9893170306281335
0.04360416315250203 5.7 -0.026403912211971914
0.5192577123190366 5.7 0.2321688282993027
-0.2549109454350305 5.7 0.7489379377534089
0.7935928457834506 5.7 -0.8805465924369955
0.9511290947279076 5.7 -0.6957582668386748
1.3674460838611808 5.7 0.25534766468692766
1.2743684845394825 5.7 0.7847733426621698
-0.9520743829239647 5.7 1.0640951140384198
-0.8309619897764733 5.7 -0.6327205468482583
0.46536947394907613 5.7 0.39125291424326425
-0.6814213840291482 5.7 0.4085097590017428
-0.0923967067505971 5.7 -0.16424066930306055
0.40392280548077225 5.7 1.2924920554458756
0.49217070151517894 5.7 -1.2416383009624177
-0.35483275756727123 5.7 1.290747184753052
0.20244811945040622 5.7 1.2222499215195974
-0.6828406303402482 5.7 0.5593343109067384
-1.174442235087327 5.7 -0.876914561406575
-0.8326740287342637 5.7 -0.261416702909955
-0.24173364086261862 5.7 -1.1598782288760476
0.41251161672200887 5.7 0.40048326151655617
-1.2327428605497077 5.7 0.2731343420795013
-0.5227177270401734 5.7 1.13978020213073
-1.6378010104590397 5.7 0.13994502690314137
-1.2289979274991545 5.7 0.5660119939032004
-0.5172633460381869 5.7 -1.3007037194355016
0.663342787192595 5.7 -0.30419334219278327
1.442948983189557 5.7 0.33287095033689756
0.7340587124126846 5.7 -1.196761201254134
0.517990062483303 5.7 -0.5732509053510378
0.7099673157523743 5.7 -0.7633661855335051
-1.2111857849711454 5.7 0.9177322039962358
-0.18867844552824709 5.7 -0.5229831479104727
0.1474817902477505 5.7 1.6006469385812865
0.9636615565058649 5.7 0.865973591587743
0.8891994350474961 5.7 -0.832913349174305
0.4937041382504072 5.7 -0.3951942197152813
-1.1517433759090887 5.7 0.04619204247605581
-1.2268272531383597 5.7 0.04098112854345546
-0.026035696231534535 5.7 0.2598253410049374
0.824211757207775 5.7 -0.6835899424720743
-0.7380905840703221 5.7 0.9701777070026283
0.31218565224748507 5.7 -1.106954828812411
0.4481192951608578 5.7 0.5226964505030686
1.1516998709300141 5.7 0.05856533337929604
-1.457506440406474 5.7 -0.04821263315370648
0.5102919972794269 5.7 1.2941328829419623
0.8702595180315515 5.7 1.3772752339777319
-1.094034514978394 5.7 -0.36708925792581043
1.3012111170971004 5.7 0.3914638402174658
-0.22116461556251252 5.7 0.6732301119359297
-1.1811378721894927 5.7 -0.009221439223488536
1.2280912680596772 5.7 0.1148092866407626
0.1680245236458671 5.7 -0.07562141545988209
-0.368628829822611 0.0 -0.0472081115903225
-0.278972252434009 0.0 1.301796459696488
-1.002310444250932 0.0 0.27655695426311705
-1.3689511499442728 0.0 -0.4725489374371856
0.3478354504277673 0.0 -0.08449353927024421
1.1932517840258507 0.0 0.7673883967739841
-0.9379430784657049 0.0 0.15098184945112708
-0.4656006136642339 0.0 0.22446087457602157
-1.122669572244775 0.0 0.8113214760725492
-0.37509175283079643 0.0 0.8253296788155833
-0.30247061181427237 0.0 1.313162005793657
0.33378628369996355 0.0 -0.7605265198579527
0.04788037252811148 0.0 0.22676359344422695
-0.8898192683403042 0.0 1.1665975313565404
-0.3714332941220067 0.0 -1.0629834852290676
-0.4679162533896358 0.0 -1.227376186352183
-0.6199246946954914 0.0 0.9743580656311499
1.3382511483772561 0.0 0.8654564442479169
0.5702859631719059 0.0 0.8769029549363614
0.10722207228723139 0.0 -0.07823456738294933
0.7100294885360237 0.0 0.6019365328897253
-1.2789642020353247 0.0 -0.6680637314048147
-1.3603560896546023 0.0 0.35042275835744513
0.9083654868488851 0.0 -0.6372084111195694
0.1339772065732799 0.0 -0.27111289229532254
-0.8030785705192525 0.0 1.3825341833728628
-0.04147010946274679 0.0 -1.3137314255427335
-1.1933346001946152 0.0 -0.8136149436493363
-1.1872200879387365 0.0 0.273137885063522
0.3639035908770934 0.0 1.2013087491013887
-0.6287860532625424 0.0 -1.1397765092270038
-0.09031909427029658 0.0 -0.2087221610910806
0.1660134772817515 0.0 0.851985835490853
0.3139636646272741 0.0 1.3795945504143836
-0.9925368334271034 0.0 0.9188647175849107
0.23401258067711114 0.0 -1.1822959912895135
-1.2143370499712842 0.0 -0.5920620732666819
-0.7752720462844769 0.0 -0.6203929899639224
-0.32219173381300714 0.0 -0.25276716633127577
0.6259583297262816 0.0 0.3951447465366291
0.9677010436367286 0.0 -1.0110280440385397
-0.19150835145462322 0.0 1.2905295756626054
-1.3050459555353722 0.0 -0.3085818518278565
0.374819909850105 0.0 1.3921464109331199
-0.273929177450065 0.0 0.0562136282778997
-0.2916752793056787 0.0 -0.1144610636986302
-0.9324565564689126 0.0 -0.22958869760309902
-1.1499997016920707 0.0 0.9894624840886589
-0.06752723466533704 0.0 1.1862609269430242
-1.2167853743656876 0.0 0.6239824995681101
0.2985673502960819 0.0 -0.8506962776772884
0.12771912186098802 0.0 1.0875998161152831
-0.2510680300980818 0.0 -0.842552174798122
-0.3528253613507311 0.0 0.6710615507238245
0.18951245661352567 0.0 -0.9519631180590135
0.5109810675229461 0.0 -0.4609659212321212
0.36200607748039365 0.0 -0.10129795783079737
0.16969686585327637 0.0 -0.21017984283644184
0.49097528246569566 0.0 -0.09440136829671592
-1.022855673421148 0.0 1.227922610670813
0.9205506890579518 0.0 0.8128342353004512
0.8799995331512126 0.0 -0.10031542116466734
-1.1007518073537836 0.0 -0.18064002505824636
-0.6266873771293671 0.0 1.1017376864376167
-0.3189354336120958 0.0 -0.2339314956406427
0.7586610789544304 0.0 0.6329239425596808
-0.18394631610591994 0.0 -1.3381570403080347
0.7417100132417866 0.0 -0.4471943552626428
0.27799317834295667 0.0 -0.8286174263568526
-0.2480426421224291 0.0 -1.2752718811297914
0.6330938957107018 0.0 0.12577590574977837
-0.6886833836406094 0.0 1.1622931847992182
0.061454137751342584 0.0 -1.0097231481761189
-0.5646408445573372 0.0 0.9529234117587263
-0.4454479454314116 0.0 -1.302610326222568
-1.1200380853184912 0.0 -0.7508113934063289
0.039756194184488926 0.0 1.2142023439300729
-1.3180375288378117 0.0 0.32203592419268423
-1.4627057296775055 0.0 -0.6530237529289835
0.35701883799390893 0.0 -0.7085636908166338
-0.28894849285379615 0.0 1.2163151875367209
0.6292307290885089 0.0 0.4775436392364426
-1.1102064615927691 0.0 -1.0708480519823915
0.032143616884561514 0.0 -1.2158007433569824
0.43707548116002704 0.0 1.2031801830436168
0.8191021472582588 0.0 -0.2634704838759136
0.8795789610858945 0.0 -0.6683306862510779
-0.19465437024431742 0.0 1.225107000626259
-0.30492458873715583 0.0 -1.1118537383839515
-0.09967062346484318 0.0 0.7857792001084808
-0.08759751067886198 0.0 -1.1155765601537855
-0.06766649776186899 0.0 1.0918984240662801
-0.8292071409646565 0.0 -0.5931047265963345
0.9871486718946305 0.0 0.40904417873961835
-0.9422782743263607 0.0 -0.0005046634783348488
-0.9323285097885294 0.0 -0.6344310850901386
0.3369412337516939 0.0 -1.028048607844088
0.13977992778502263 0.0 -1.1380117101118414
-0.11676181824516102 0.0 0.43949159824259426
-1.1466605403042678 0.0 -0.35186373855814806
-0.7512304555263739 0.0 -0.21726276143574652
-0.4068143913450179 0.0 -0.23207158935466798
-0.8941170614311048 0.0 -1.1931606566293707
0.3517639745034191 0.0 0.8674566938636858
-0.6041189971064848 0.0 0.382699141970161
0.5110317097865132 0.0 1.0364272823982803
-1.0981656942030844 0.0 0.3237228752379207
1.2122007792064244 0.0 0.5235419559942075
-1.0680150866673694 0.0 -0.8100925504115891
-0.522314345024103 0.0 -0.5453419971652976
-1.3658928063960614 0.0 -0.33489992918190653
0.8092576287032441 0.0 0.025362586225804035
0.910585135229175 0.0 -0.23124016701555458
-0.567178856880223 0.0 -1.0078269765423118
0.9395073400327072 0.0 1.1451835231895942
1.2716044003864315 0.0 0.7075883889818547
-0.14340302674337158 0.0 -0.7203327161610186
0.7756547144143654 0.0 1.1162913793961422
0.8413181135977007 0.0 1.3449176240753349
-0.1293509846467112 0.0 0.7872563404023222
0.417624688198776 0.0 0.13192217210756862
1.0604266707233438 0.0 0.24789577562941334
-1.5764463158069046 0.0 0.396510221086419
-1.2300123395562546 0.0 0.7880457345018034
1.5218052648602751 0.0 -0.09069094929788052
0.21518416044136326 0.0 -1.0375991879947082
0.05522524758507837 0.0 -0.49154427892423014
0.789671517146122 0.0 0.5670076484011397
0.1705125435756422 0.0 0.870025208981628
0.781752285556069 0.0 -0.9198744399415827
